ply
		format ascii 1.0
		element vertex 7845
		property float x
		property float y
		property float z
		property uchar red
		property uchar green
		property uchar blue
		end_header
267510.093750 149618.265625 663112.687500 255 255 254
268230.031250 149626.171875 663147.750000 249 255 251
268968.375000 149644.312500 663228.187500 245 254 249
269707.562500 149662.812500 663310.125000 249 255 253
270427.968750 149670.812500 663345.625000 249 255 253
271127.593750 149667.312500 663330.125000 243 253 249
271840.343750 149671.062500 663346.687500 243 253 248
272561.156250 149679.218750 663382.812500 245 255 252
273289.593750 149691.500000 663437.250000 249 255 254
274022.625000 149706.218750 663502.562500 251 255 255
274747.968750 149716.687500 663548.875000 253 255 255
275499.031250 149741.062500 663657.000000 251 255 255
276256.000000 149768.546875 663778.750000 244 254 253
277010.750000 149794.656250 663894.500000 245 255 254
277756.281250 149815.687500 663987.687500 248 255 255
278474.250000 149821.781250 664014.687500 247 255 255
279199.562500 149831.781250 664059.000000 245 255 254
279922.843750 149840.640625 664098.250000 242 255 254
280643.062500 149847.812500 664130.062500 242 255 254
281364.625000 149855.671875 664164.875000 243 255 255
282077.906250 149859.078125 664180.062500 243 255 255
282797.875000 149866.031250 664210.812500 242 255 255
283511.500000 149869.578125 664226.562500 243 255 255
284234.406250 149878.031250 664264.000000 244 254 255
284976.000000 149896.250000 664344.750000 243 253 255
285716.781250 149913.953125 664423.187500 242 253 255
286487.593750 149947.296875 664571.000000 239 250 254
287253.531250 149977.921875 664706.750000 237 246 251
288023.375000 150010.437500 664850.812500 242 251 254
288802.062500 150047.375000 665014.562500 242 253 255
289552.531250 150069.515625 665112.625000 239 252 254
290322.343750 150101.546875 665254.625000 236 251 254
291072.406250 150123.250000 665350.812500 231 248 253
291825.875000 150146.578125 665454.250000 232 250 254
292606.031250 150183.500000 665617.875000 232 253 254
293369.812500 150211.859375 665743.562500 230 254 254
294159.750000 150253.437500 665927.875000 231 254 254
294924.531250 150282.015625 666054.500000 233 253 254
295695.468750 150313.578125 666194.312500 235 253 254
296498.250000 150361.140625 666405.125000 237 254 254
297278.312500 150396.968750 666564.000000 238 253 254
298099.562500 150453.421875 666814.187500 237 252 254
298898.406250 150498.328125 667013.187500 237 252 254
299698.687500 150543.734375 667214.437500 238 253 254
300520.812500 150599.875000 667463.250000 240 253 254
301301.812500 150635.203125 667619.812500 240 253 254
302126.375000 150692.078125 667871.875000 239 251 254
302929.906250 150738.218750 668076.375000 239 251 254
303734.750000 150784.812500 668282.875000 239 252 254
304564.281250 150843.406250 668542.562500 241 252 255
305351.500000 150880.812500 668708.375000 243 253 254
306177.000000 150936.921875 668957.000000 243 254 255
306969.375000 150976.484375 669132.437500 244 255 255
307770.062500 151019.937500 669325.000000 244 255 255
308615.218750 151084.968750 669613.187500 243 254 255
309427.593750 151133.656250 669829.000000 243 254 255
310302.156250 151212.453125 670178.250000 243 253 255
311146.750000 151276.312500 670461.250000 244 255 255
311995.781250 151342.046875 670752.562500 245 255 255
312878.750000 151423.890625 671115.312500 244 254 255
313701.625000 151476.343750 671347.812500 245 253 255
314582.781250 151556.640625 671703.625000 246 254 255
315423.750000 151617.250000 671972.312500 247 255 255
316269.218750 151679.750000 672249.250000 248 255 255
317162.937500 151765.062500 672627.375000 248 255 255
318001.750000 151823.765625 672887.562500 248 255 255
318908.375000 151914.500000 673289.687500 248 255 255
319778.625000 151987.562500 673613.500000 247 255 255
320642.375000 152057.187500 673922.125000 248 255 255
321533.593750 152139.515625 674287.000000 248 255 255
322352.843750 152187.500000 674499.687500 248 255 255
323221.750000 152258.656250 674815.000000 248 255 255
324054.812500 152312.656250 675054.312500 247 255 255
324882.718750 152364.000000 675281.875000 247 255 255
325745.187500 152431.281250 675580.125000 248 255 255
326556.562500 152474.421875 675771.312500 248 255 255
327407.593750 152535.843750 676043.500000 247 255 255
328227.562500 152582.546875 676250.500000 245 254 254
329034.250000 152622.906250 676429.375000 242 254 254
329857.218750 152670.609375 676640.812500 241 254 254
330633.656250 152696.609375 676756.000000 240 254 254
331424.718750 152729.250000 676900.687500 240 254 254
332192.093750 152750.843750 676996.437500 238 255 254
332947.625000 152766.921875 677067.687500 240 255 254
333716.531250 152789.046875 677165.750000 241 255 254
334465.125000 152801.796875 677222.250000 239 255 255
335211.656250 152813.562500 677274.375000 238 255 255
335943.625000 152818.640625 677296.875000 237 255 255
336663.187500 152818.062500 677294.312500 239 255 255
337383.843750 152817.984375 677294.000000 240 255 255
338099.968750 152815.875000 677284.625000 238 255 255
338796.593750 152804.968750 677236.250000 236 255 255
339491.500000 152793.343750 677184.750000 237 255 254
340170.875000 152774.781250 677102.437500 238 255 254
340834.375000 152749.171875 676989.000000 239 254 255
341508.968750 152728.656250 676898.062500 239 254 255
342142.187500 152689.750000 676725.625000 240 253 255
342782.437500 152654.125000 676567.750000 239 253 255
343415.781250 152615.609375 676397.062500 236 253 254
344036.812500 152571.781250 676202.750000 231 253 254
344696.281250 152545.140625 676084.687500 225 252 255
345310.562500 152498.656250 675878.687500 220 250 254
345941.437500 152459.687500 675706.000000 218 248 253
346563.218750 152416.875000 675516.250000 218 247 253
347157.406250 152362.125000 675273.625000 218 247 252
347791.625000 152325.140625 675109.687500 217 246 252
348363.687500 152261.140625 674826.000000 216 244 252
348958.062500 152207.140625 674586.687500 216 244 253
349542.843750 152149.171875 674329.812500 217 245 255
350092.718750 152076.281250 674006.750000 217 246 254
350698.468750 152027.921875 673792.375000 216 245 253
351244.906250 151954.093750 673465.187500 215 245 253
351835.937500 151899.828125 673224.625000 214 244 255
352416.250000 151841.156250 672964.625000 211 241 254
352938.562500 151757.781250 672595.125000 209 238 253
353513.656250 151697.390625 672327.500000 209 239 254
354003.937500 151600.937500 671899.937500 210 241 255
354546.406250 151527.156250 671573.000000 208 241 255
355069.656250 151445.500000 671211.062500 205 238 253
355519.343750 151332.828125 670711.687500 201 233 252
356042.843750 151251.984375 670353.437500 196 228 251
356452.593750 151123.234375 669782.750000 192 223 250
356927.843750 151022.703125 669337.250000 191 221 250
357386.468750 150915.562500 668862.437500 191 221 248
357761.375000 150773.562500 668233.062500 191 222 249
358241.062500 150676.203125 667801.562500 192 222 250
358588.968750 150523.921875 667126.625000 190 220 247
359015.468750 150405.140625 666600.187500 189 218 245
359432.906250 150283.046875 666059.062500 189 218 246
359761.562500 150124.406250 665355.937500 188 218 246
360216.031250 150018.765625 664887.750000 185 215 244
360537.906250 149858.437500 664177.187500 182 210 240
360951.812500 149736.906250 663638.562500 174 200 232
361360.062500 149613.515625 663091.687500 166 194 228
361669.093750 149449.593750 662365.187500 174 202 236
362106.593750 149339.312500 661876.375000 178 206 241
362403.250000 149171.468750 661132.500000 174 201 237
362791.625000 149041.968750 660558.562500 171 196 234
363181.000000 148913.359375 659988.562500 171 196 233
363479.437500 148748.046875 659255.937500 173 198 234
363918.312500 148640.734375 658780.250000 172 197 234
364231.093750 148482.421875 658078.625000 167 191 227
364640.218750 148363.921875 657553.437500 164 186 224
365055.000000 148248.171875 657040.437500 166 188 224
365378.156250 148095.718750 656364.750000 172 192 227
365829.125000 147995.562500 655920.875000 178 197 233
366166.406250 147849.890625 655275.250000 176 196 233
366605.218750 147745.687500 654813.375000 174 195 233
367037.718750 147639.328125 654342.000000 177 199 238
367361.593750 147489.781250 653679.187500 174 195 234
367795.093750 147384.718750 653213.562500 165 187 226
368079.781250 147220.531250 652485.875000 162 183 222
368452.250000 147092.000000 651916.187500 165 186 224
368816.093750 146960.515625 651333.500000 165 187 225
369084.968750 146791.750000 650585.562500 163 183 222
369497.687500 146680.750000 650093.562500 163 184 223
369762.843750 146511.656250 649344.125000 165 188 226
370120.375000 146379.750000 648759.500000 167 190 228
370484.593750 146250.968750 648188.812500 166 189 227
370765.125000 146089.687500 647473.937500 164 189 225
371196.437500 145988.312500 647024.625000 166 191 227
371499.687500 145837.046875 646354.187500 164 188 224
371894.875000 145722.343750 645845.875000 158 183 219
372295.656250 145610.265625 645349.125000 164 188 223
372608.281250 145464.187500 644701.687500 175 197 230
373050.531250 145369.140625 644280.500000 178 196 229
373370.406250 145226.859375 643649.875000 173 189 222
373772.843750 145117.140625 643163.625000 173 188 221
374185.812500 145011.921875 642697.312500 175 190 224
374526.312500 144879.046875 642108.375000 172 187 221
374994.343750 144795.890625 641739.812500 169 186 220
375365.781250 144675.828125 641207.687500 166 186 220
375815.750000 144586.390625 640811.312500 167 189 223
376280.125000 144502.828125 640440.937500 170 192 227
376679.375000 144394.593750 639961.250000 167 193 228
377181.968750 144326.296875 639658.562500 158 188 224
377610.281250 144229.859375 639231.187500 155 185 222
378114.593750 144162.765625 638933.812500 157 189 228
378619.843750 144096.265625 638639.000000 157 190 230
379044.781250 143999.500000 638210.125000 156 190 231
379542.718750 143930.734375 637905.437500 159 193 235
379956.093750 143830.234375 637460.000000 158 192 236
380440.531250 143756.921875 637135.125000 154 188 234
380923.250000 143683.234375 636808.500000 152 186 233
381337.593750 143584.062500 636369.000000 152 186 234
381837.031250 143517.234375 636072.750000 153 187 234
382225.875000 143409.125000 635593.625000 149 185 231
382674.562500 143323.843750 635215.625000 136 177 220
383106.281250 143232.484375 634810.750000 131 174 211
383456.625000 143111.093750 634272.750000 142 181 215
383907.968750 143027.765625 633903.375000 177 206 234
384223.406250 142894.171875 633311.312500 221 244 253
384615.375000 142789.468750 632847.250000 246 255 255
384987.843750 142677.890625 632352.812500 252 255 255
385256.406250 142528.281250 631689.687500 255 255 255
385648.218750 142424.687500 631230.562500 247 239 246
385895.062500 142268.031250 630536.250000 222 208 220
386229.281250 142144.062500 629986.812500 189 176 188
386581.437500 142027.125000 629468.500000 145 135 148
254589.640625 150195.718750 662546.937500 163 148 145
255310.937500 150205.234375 662588.875000 184 170 164
256042.390625 150220.671875 662656.937500 186 175 167
256770.265625 150233.906250 662715.312500 202 193 186
257475.625000 150233.937500 662715.500000 212 203 196
258149.437500 150215.609375 662634.625000 214 205 197
258822.281250 150196.828125 662551.750000 222 212 202
259526.984375 150196.578125 662550.687500 227 215 208
260254.218750 150209.343750 662607.000000 227 217 211
260980.203125 150221.312500 662659.812500 218 211 205
261696.859375 150227.859375 662688.687500 223 217 213
262403.656250 150228.734375 662692.500000 226 223 219
263099.031250 150223.093750 662667.625000 221 220 216
263786.718750 150213.078125 662623.437500 226 224 219
264477.187500 150204.703125 662586.562500 225 224 217
265178.937500 150202.781250 662578.062500 225 223 216
265885.406250 150203.515625 662581.250000 227 226 219
266586.906250 150201.468750 662572.250000 227 227 220
267288.281250 150199.343750 662562.875000 226 226 220
268010.156250 150208.718750 662604.250000 226 227 220
268749.750000 150227.953125 662689.062500 231 232 225
269489.375000 150247.093750 662773.500000 241 242 235
270208.656250 150254.843750 662807.687500 240 241 233
270906.062500 150250.406250 662788.125000 230 230 222
271617.625000 150253.828125 662803.250000 228 230 219
272338.843750 150262.546875 662841.687500 235 237 226
273068.156250 150275.687500 662899.687500 244 246 234
273801.125000 150290.781250 662966.187500 248 248 238
274525.750000 150301.203125 663012.187500 249 248 239
275278.156250 150326.765625 663124.937500 249 247 239
276037.187500 150355.781250 663253.000000 246 243 237
276795.218750 150384.125000 663378.000000 248 246 240
277544.625000 150407.640625 663481.687500 254 251 247
278265.031250 150415.359375 663515.812500 253 250 247
278998.156250 150429.906250 663579.937500 248 247 242
279730.875000 150444.156250 663642.812500 245 246 240
280460.718750 150456.796875 663698.562500 246 249 241
281190.281250 150469.218750 663753.375000 245 249 240
281906.250000 150474.312500 663775.812500 241 245 235
282630.218750 150483.671875 663817.062500 239 243 234
283346.750000 150489.000000 663840.625000 244 248 240
284072.218750 150499.062500 663885.000000 255 255 249
284817.750000 150519.656250 663975.812500 255 255 252
285561.062500 150538.984375 664061.125000 252 255 248
286335.187500 150574.421875 664217.437500 250 254 246
287103.187500 150606.468750 664358.812500 251 254 249
287874.531250 150640.109375 664507.187500 255 255 252
288655.062500 150678.390625 664676.000000 255 255 255
289406.062500 150701.093750 664776.187500 255 255 255
290176.968750 150734.046875 664921.562500 255 255 255
290927.812500 150756.421875 665020.312500 253 255 255
291681.843750 150780.343750 665125.812500 250 255 254
292463.031250 150818.156250 665292.562500 247 255 254
293227.468750 150847.156250 665420.562500 245 255 255
294015.687500 150888.234375 665601.750000 247 255 255
294777.156250 150915.421875 665721.687500 249 255 255
295543.406250 150944.906250 665851.750000 248 255 254
296341.312500 150990.406250 666052.437500 246 255 251
297118.125000 151024.937500 666204.750000 248 255 252
297933.125000 151078.687500 666441.875000 251 255 254
298726.375000 151121.171875 666629.250000 252 255 255
299520.093750 151163.687500 666816.812500 250 255 254
300334.062500 151216.218750 667048.500000 249 255 252
301109.312500 151249.031250 667193.250000 249 255 251
301924.000000 151301.453125 667424.562500 252 255 252
302718.437500 151343.500000 667610.000000 253 255 253
303514.093750 151385.968750 667797.375000 252 255 253
304333.687500 151440.156250 668036.375000 252 255 253
305115.000000 151475.093750 668190.500000 251 255 254
305931.406250 151527.218750 668420.437500 251 255 255
306716.312500 151563.562500 668580.750000 251 255 255
307509.062500 151603.593750 668757.375000 250 254 254
308344.156250 151664.281250 669025.000000 249 254 254
309149.375000 151710.015625 669226.812500 249 254 254
310013.718750 151784.500000 669555.312500 250 252 254
310850.406250 151845.109375 669822.750000 251 253 254
311691.937500 151907.828125 670099.375000 251 253 255
312565.750000 151985.937500 670443.937500 251 252 254
313382.687500 152036.109375 670665.250000 251 251 253
314255.812500 152113.250000 671005.500000 251 252 253
315091.281250 152171.843750 671264.062500 252 252 253
315931.218750 152232.328125 671530.812500 252 252 253
316816.750000 152314.468750 671893.187500 252 252 253
317649.500000 152370.921875 672142.187500 253 253 254
318547.875000 152458.531250 672528.625000 253 253 254
319412.281250 152529.515625 672841.750000 252 253 253
320270.093750 152597.046875 673139.687500 253 253 253
321153.031250 152676.218750 673488.937500 252 253 253
321966.125000 152721.906250 673690.500000 252 253 253
322826.093750 152789.578125 673989.000000 253 254 253
323651.937500 152840.843750 674215.125000 253 254 253
324472.812500 152889.531250 674429.937500 251 253 253
325326.718750 152953.546875 674712.250000 251 253 253
326132.437500 152994.656250 674893.625000 250 253 253
326975.468750 153053.062500 675151.250000 250 253 254
327789.156250 153097.484375 675347.250000 251 254 255
328589.968750 153135.750000 675516.000000 251 254 255
329405.750000 153180.781250 675714.687500 250 254 255
330177.312500 153205.109375 675822.000000 250 254 255
330961.718750 153235.281250 675955.062500 250 254 255
331723.312500 153254.781250 676041.062500 250 255 255
332473.562500 153268.968750 676103.625000 249 254 255
333236.656250 153289.000000 676192.000000 249 254 255
333981.656250 153300.625000 676243.312500 251 255 255
334723.343750 153310.703125 676287.750000 249 255 255
335451.156250 153314.375000 676304.000000 247 255 255
336166.750000 153312.484375 676295.625000 246 255 255
336882.968750 153310.875000 676288.562500 246 255 255
337596.250000 153307.937500 676275.562500 247 255 255
338289.031250 153295.734375 676221.750000 246 255 255
338981.031250 153283.203125 676166.437500 246 255 255
339657.500000 153263.734375 676080.625000 247 255 255
340317.218750 153236.812500 675961.812500 247 255 253
340989.062500 153215.437500 675867.562500 247 255 252
341617.406250 153174.656250 675687.625000 249 255 253
342252.937500 153137.265625 675522.687500 250 255 253
342881.031250 153096.703125 675343.750000 246 255 254
343495.625000 153050.296875 675139.062500 244 255 255
344150.250000 153021.890625 675013.750000 241 255 255
344757.875000 152972.734375 674796.937500 239 255 255
345383.781250 152931.890625 674616.687500 239 255 255
346000.312500 152887.062500 674419.000000 240 255 255
346587.468750 152829.484375 674165.000000 240 255 255
347216.156250 152790.406250 673992.625000 238 255 255
347780.812500 152723.375000 673696.937500 235 255 255
348369.656250 152667.203125 673449.187500 235 254 255
348948.531250 152606.921875 673183.250000 236 254 255
349490.250000 152530.656250 672846.812500 236 255 255
350089.687500 152479.859375 672622.750000 235 255 255
350626.406250 152402.015625 672279.312500 236 255 255
351208.937500 152344.328125 672024.875000 235 255 255
351780.593750 152282.187500 671750.750000 230 253 255
352292.781250 152194.609375 671364.437500 226 249 255
352861.125000 152131.593750 671086.437500 224 250 255
353342.531250 152031.421875 670644.625000 225 251 254
353878.062500 151954.890625 670307.000000 225 251 255
354395.093750 151870.765625 669935.875000 222 250 255
354837.593750 151755.078125 669425.562500 221 249 255
355356.625000 151672.531250 669061.437500 217 245 255
355761.093750 151541.500000 668483.437500 213 243 255
356232.500000 151439.453125 668033.312500 216 245 255
356687.906250 151331.031250 667555.000000 214 244 255
357058.968750 151187.328125 666921.062500 209 239 255
357535.593750 151088.812500 666486.500000 208 238 254
357879.437500 150934.671875 665806.562500 210 240 254
358302.343750 150814.421875 665276.125000 209 239 254
358715.968750 150690.750000 664730.562500 204 233 252
359040.062500 150530.015625 664021.562500 200 229 250
359490.875000 150422.953125 663549.250000 202 231 252
359808.250000 150260.578125 662833.000000 202 231 252
360218.250000 150137.437500 662289.812500 194 223 246
360622.906250 150012.578125 661739.000000 186 214 241
360927.906250 149846.812500 661007.750000 188 216 245
361362.656250 149735.453125 660516.562500 189 218 249
361657.406250 149566.640625 659771.875000 190 219 248
362045.250000 149436.890625 659199.562500 198 225 249
362434.937500 149308.406250 658632.750000 194 220 249
362733.906250 149143.140625 657903.687500 189 215 247
363173.156250 149036.062500 657431.375000 188 214 246
363487.125000 148878.078125 656734.500000 187 212 243
363897.000000 148759.906250 656213.187500 194 215 243
364312.781250 148644.609375 655704.562500 200 218 246
364637.875000 148492.796875 655034.937500 192 211 244
365089.812500 148393.140625 654595.312500 188 207 243
365429.656250 148248.390625 653956.750000 182 202 239
365870.062500 148144.906250 653500.250000 178 200 238
366304.625000 148039.453125 653035.125000 182 206 244
366632.062500 147891.187500 652381.062500 184 210 246
367067.937500 147787.140625 651922.125000 182 209 244
367357.531250 147624.703125 651205.562500 180 206 242
367733.343750 147497.453125 650644.250000 179 206 240
368101.468750 147367.609375 650071.500000 180 207 239
368376.812500 147201.187500 649337.312500 181 207 239
368794.281250 147092.046875 648855.937500 181 207 240
369067.468750 146925.906250 648123.000000 178 206 238
369431.062500 146796.296875 647551.312500 177 207 238
369801.687500 146669.968750 646994.000000 178 207 239
370090.750000 146511.796875 646296.250000 174 203 237
370527.187500 146412.453125 645858.062500 171 200 234
370839.593750 146264.578125 645205.687500 175 204 239
371241.968750 146152.656250 644712.000000 177 205 244
371650.187500 146043.437500 644230.250000 168 195 233
371972.468750 145900.921875 643601.625000 167 191 226
372420.781250 145808.265625 643192.875000 175 197 229
372748.968750 145669.015625 642578.625000 178 199 230
373156.437500 145561.203125 642103.000000 173 194 223
373573.906250 145457.671875 641646.312500 173 193 221
373921.156250 145327.218750 641070.875000 179 200 227
374393.156250 145245.656250 640711.062500 181 203 229
374771.406250 145128.078125 640192.375000 178 203 227
375226.531250 145040.625000 639806.625000 174 201 226
375695.968750 144959.031250 639446.687500 174 201 229
376101.468750 144853.109375 638979.437500 174 203 232
376607.500000 144786.203125 638684.312500 175 204 234
377042.875000 144692.437500 638270.687500 174 204 236
377553.375000 144627.765625 637985.437500 172 202 237
378065.312500 144563.906250 637703.687500 171 202 240
378499.781250 144470.687500 637292.500000 171 202 242
379004.156250 144404.437500 637000.250000 173 204 243
379426.687500 144307.296875 636571.750000 176 207 246
379917.031250 144236.250000 636258.375000 176 207 247
380405.593750 144164.781250 635943.062500 174 205 243
380829.187500 144069.000000 635520.562500 172 203 239
381335.406250 144004.750000 635237.125000 172 204 239
381731.562500 143899.234375 634771.687500 175 208 242
382184.625000 143815.515625 634402.375000 174 210 243
382617.781250 143724.593750 634001.312500 173 210 240
382968.343750 143603.031250 633465.125000 173 208 236
383417.187500 143518.687500 633093.000000 185 215 239
383729.093750 143383.468750 632496.562500 216 239 250
384118.843750 143277.781250 632030.312500 237 251 253
384487.375000 143164.531250 631530.750000 249 254 255
384748.937500 143011.937500 630857.625000 255 255 255
385133.906250 142905.656250 630388.750000 233 226 231
385371.593750 142745.187500 629680.937500 190 177 186
385698.656250 142618.328125 629121.312500 164 150 160
254973.453125 150710.921875 661713.062500 148 132 135
255718.734375 150735.125000 661819.250000 156 140 140
256455.968750 150754.453125 661904.125000 131 115 115
257172.718750 150761.671875 661935.812500 142 126 124
257852.937500 150747.484375 661873.562500 151 132 129
258530.656250 150731.921875 661805.250000 149 126 122
259242.750000 150736.437500 661825.062500 169 146 141
259974.390625 150752.265625 661894.562500 166 143 140
260705.968750 150767.968750 661963.500000 172 151 149
261425.859375 150776.843750 662002.437500 172 153 153
262135.000000 150779.484375 662014.062500 177 160 162
262834.718750 150776.703125 662001.812500 182 168 167
263525.281250 150768.718750 661966.812500 170 156 154
264214.812500 150760.171875 661929.250000 172 159 156
264910.781250 150755.328125 661908.000000 171 160 157
265610.812500 150752.828125 661897.062500 181 170 167
266310.093750 150749.921875 661884.250000 185 174 171
267012.718750 150748.890625 661879.750000 174 163 161
267736.656250 150759.890625 661928.000000 181 169 166
268478.156250 150780.703125 662019.375000 190 177 174
269218.843750 150800.921875 662108.187500 201 189 185
269936.968750 150808.468750 662141.312500 201 189 184
270631.500000 150802.781250 662116.375000 196 181 175
271341.218750 150805.593750 662128.750000 202 189 181
272062.812500 150814.984375 662169.937500 206 195 185
272793.156250 150829.140625 662232.062500 210 200 188
273525.687500 150844.437500 662299.250000 210 198 186
274248.968750 150854.578125 662343.750000 204 193 181
275001.906250 150880.937500 662459.500000 207 196 184
275762.375000 150911.265625 662592.687500 219 206 197
276523.406250 150941.765625 662726.562500 219 206 197
277276.562500 150967.796875 662840.875000 215 201 193
277999.781250 150977.468750 662883.375000 223 208 202
278740.937500 150996.781250 662968.125000 230 218 210
279482.843750 151016.421875 663054.312500 225 216 207
280222.062500 151034.515625 663133.812500 225 219 209
280959.750000 151051.687500 663209.187500 228 223 212
281678.781250 151058.765625 663240.250000 224 218 206
282407.968750 151071.234375 663295.000000 216 211 198
283128.406250 151078.984375 663329.062500 219 215 202
283858.156250 151091.656250 663384.687500 222 218 205
284610.531250 151116.265625 663492.750000 225 222 209
285358.968750 151138.687500 663591.125000 227 223 211
286140.343750 151178.390625 663765.500000 228 225 211
286913.343750 151213.468750 663919.500000 237 233 221
287689.437500 151250.015625 664080.000000 236 231 219
288476.562500 151292.156250 664265.000000 235 231 219
289231.750000 151317.406250 664375.875000 236 233 221
290008.562500 151353.812500 664535.687500 236 233 220
290763.500000 151378.640625 664644.687500 242 238 228
291521.281250 151404.812500 664759.625000 238 239 226
292308.468750 151446.109375 664940.937500 238 241 227
293077.125000 151477.640625 665079.375000 241 243 232
293868.625000 151520.796875 665268.875000 241 243 231
294630.437500 151548.453125 665390.312500 243 245 234
295395.531250 151577.671875 665518.562500 242 248 233
296193.656250 151623.671875 665720.562500 243 249 232
296970.593750 151658.625000 665874.000000 246 251 236
297784.562500 151712.250000 666109.500000 249 252 240
298576.000000 151754.203125 666293.687500 251 252 240
299366.843750 151795.640625 666475.625000 251 253 240
300176.968750 151846.640625 666699.562500 252 255 241
300949.062500 151878.218750 666838.187500 253 255 242
301757.625000 151928.000000 667056.750000 250 252 239
302546.031250 151967.421875 667229.875000 251 252 240
303335.187500 152007.031250 667403.750000 252 252 240
304147.906250 152058.250000 667628.625000 252 252 242
304925.281250 152091.593750 667775.000000 255 255 247
305734.750000 152140.734375 667990.812500 255 255 248
306513.968750 152174.656250 668139.687500 255 255 249
307300.187500 152211.875000 668303.125000 255 255 249
308126.000000 152268.484375 668551.687500 255 255 250
308924.125000 152311.187500 668739.187500 255 255 254
309778.218750 152381.218750 669046.687500 255 255 255
310607.156250 152438.609375 669298.625000 255 255 254
311441.000000 152498.109375 669559.875000 255 255 252
312304.843750 152572.000000 669884.312500 255 255 254
313114.937500 152619.359375 670092.250000 255 255 254
313978.843750 152692.671875 670414.125000 255 255 254
314807.937500 152748.765625 670660.375000 255 255 255
315641.375000 152806.687500 670914.750000 255 255 255
316516.968750 152884.750000 671257.437500 255 255 254
317342.031250 152938.078125 671491.625000 255 255 254
318229.843750 153021.343750 671857.187500 255 255 255
319086.906250 153089.484375 672156.375000 255 255 255
319937.125000 153154.062500 672439.875000 255 255 254
320809.218750 153228.781250 672767.937500 255 255 254
321614.250000 153271.187500 672954.187500 255 255 254
322462.031250 153333.765625 673228.937500 255 255 253
323278.187500 153381.062500 673436.562500 255 255 253
324089.281250 153425.734375 673632.750000 255 255 254
324930.906250 153484.640625 673891.375000 255 255 254
325728.437500 153522.500000 674057.562500 255 255 254
326559.343750 153575.906250 674292.062500 255 255 253
327363.656250 153616.578125 674470.625000 255 255 254
328155.250000 153651.125000 674622.312500 255 255 255
328959.406250 153691.390625 674799.125000 254 254 255
329723.281250 153712.703125 674892.625000 254 254 255
330496.781250 153738.390625 675005.500000 255 255 255
331249.750000 153754.437500 675075.937500 255 255 255
331991.781250 153765.375000 675123.937500 255 254 255
332744.843750 153781.343750 675194.000000 255 254 255
333483.500000 153790.593750 675234.625000 254 255 255
334216.343750 153797.140625 675263.437500 253 253 254
334937.156250 153798.140625 675267.750000 247 249 249
335646.375000 153793.796875 675248.750000 243 247 245
336355.343750 153789.375000 675229.312500 244 248 245
337063.937500 153784.796875 675209.187500 244 249 244
337750.593750 153770.265625 675145.375000 244 248 244
338437.812500 153756.031250 675082.937500 243 248 243
339109.968750 153735.046875 674990.750000 242 247 241
339764.437500 153706.140625 674863.875000 243 249 241
340432.593750 153683.531250 674764.625000 245 250 242
341055.000000 153640.406250 674575.250000 246 250 242
341685.031250 153600.906250 674401.812500 247 249 241
342307.093750 153557.968750 674213.312500 245 248 241
342914.562500 153508.703125 673996.937500 244 248 243
343564.000000 153478.375000 673863.875000 244 249 246
344164.625000 153426.437500 673635.812500 246 251 249
344785.218750 153383.578125 673447.625000 246 251 249
345396.500000 153336.765625 673242.062500 245 251 249
345976.562500 153276.328125 672976.687500 244 250 248
346599.937500 153235.265625 672796.437500 244 250 249
347157.343750 153165.281250 672489.125000 245 252 250
347740.531250 153106.937500 672233.000000 246 253 251
348313.656250 153044.406250 671958.437500 246 252 251
348847.500000 152964.921875 671609.437500 246 252 252
349440.906250 152911.796875 671376.250000 247 254 254
349968.093750 152830.000000 671017.062500 248 254 254
350542.187500 152768.968750 670749.125000 246 254 254
351105.156250 152703.359375 670461.000000 243 255 254
351607.156250 152611.531250 670057.875000 242 255 255
352168.500000 152545.781250 669769.187500 241 255 255
352641.250000 152442.015625 669313.562500 238 254 254
353170.218750 152362.906250 668966.250000 235 252 252
353681.625000 152276.562500 668587.125000 232 249 249
354117.343750 152158.046875 668066.750000 231 249 250
354631.906250 152073.812500 667696.937500 231 251 251
355031.312500 151940.625000 667112.187500 230 252 252
355499.125000 151837.187500 666658.062500 231 253 254
355951.500000 151727.593750 666176.812500 231 253 255
356318.906250 151582.281250 665538.812500 227 251 253
356792.687500 151482.703125 665101.625000 226 250 252
357132.343750 151326.703125 664416.687500 230 253 255
357551.468750 151204.906250 663881.875000 232 255 255
357960.718750 151079.421875 663331.000000 228 252 255
358279.156250 150916.203125 662614.312500 227 248 255
358725.500000 150807.375000 662136.562500 230 252 255
359036.906250 150642.359375 661412.000000 229 251 255
359442.031250 150517.250000 660862.687500 225 247 255
359841.906250 150390.421875 660305.812500 225 247 255
360141.156250 150222.125000 659566.875000 221 242 255
360571.187500 150108.921875 659069.875000 214 234 253
360861.281250 149938.015625 658319.437500 216 237 255
361245.937500 149806.984375 657744.187500 230 250 255
361633.093750 149677.500000 657175.625000 226 246 255
361928.750000 149510.703125 656443.312500 210 230 252
362365.281250 149402.656250 655968.937500 208 229 249
362675.375000 149242.968750 655267.812500 218 238 255
363081.281250 149123.250000 654742.187500 229 247 255
363493.062500 149006.406250 654229.187500 228 243 254
363813.750000 148852.750000 653554.500000 215 230 251
364262.625000 148752.000000 653112.187500 211 227 251
364598.062500 148605.421875 652468.562500 211 228 252
365034.281250 148500.406250 652007.500000 205 226 251
365465.031250 148393.546875 651538.312500 201 224 249
365788.468750 148243.609375 650880.000000 198 223 248
366221.812500 148138.687500 650419.375000 197 223 249
366508.968750 147975.156250 649701.312500 199 224 251
366882.781250 147847.140625 649139.312500 199 225 250
367249.562500 147716.796875 648567.000000 197 223 247
367523.593750 147549.703125 647833.312500 195 222 245
367939.718750 147440.171875 647352.437500 195 222 244
368213.062500 147273.953125 646622.625000 197 224 247
368577.250000 147144.609375 646054.687500 198 224 247
368949.031250 147018.750000 645502.187500 195 222 245
369239.625000 146861.109375 644810.000000 194 220 247
369676.593750 146762.140625 644375.437500 194 220 250
369991.062500 146615.000000 643729.437500 194 222 251
370394.968750 146503.781250 643241.062500 196 223 253
370804.843750 146395.328125 642764.937500 193 219 252
371130.312500 146254.015625 642144.500000 187 211 245
371580.406250 146162.234375 641741.500000 190 213 240
371910.375000 146023.625000 641132.937500 208 229 246
372317.531250 145915.796875 640659.437500 217 240 249
372734.031250 145811.984375 640203.687500 219 241 248
373081.156250 145681.484375 639630.687500 224 244 252
373552.593750 145599.906250 639272.562500 219 243 252
373931.562500 145482.656250 638757.750000 213 240 248
374387.375000 145395.656250 638375.750000 214 239 246
374857.531250 145314.546875 638019.625000 216 240 248
375263.687500 145208.953125 637556.062500 214 240 249
375768.968750 145142.046875 637262.250000 207 235 251
376205.937500 145049.031250 636853.812500 199 228 253
376718.031250 144985.265625 636573.875000 198 226 250
377232.750000 144922.734375 636299.312500 201 228 250
377671.343750 144831.250000 635897.625000 203 230 252
378178.531250 144766.312500 635612.562500 204 230 250
378605.062500 144670.828125 635193.312500 207 231 250
379097.156250 144600.671875 634885.250000 209 233 250
379587.468750 144530.093750 634575.375000 208 231 247
380014.968750 144435.890625 634161.750000 209 232 245
380523.937500 144372.937500 633885.375000 211 235 245
380923.375000 144268.703125 633427.750000 210 234 245
381378.187500 144185.796875 633063.687500 208 231 244
381811.093750 144094.890625 632664.625000 209 234 248
382159.687500 143972.562500 632127.500000 213 237 252
382604.781250 143886.953125 631751.625000 211 234 249
382912.062500 143749.890625 631149.875000 208 229 244
383298.218750 143642.890625 630680.062500 220 236 245
383663.093750 143528.281250 630176.875000 242 251 255
383920.000000 143373.765625 629498.437500 252 255 255
384301.250000 143266.140625 629025.875000 224 222 227
384534.687500 143103.875000 628313.437500 178 169 178
384857.937500 142975.546875 627750.000000 149 140 150
256271.359375 151349.859375 661427.687500 153 135 143
256993.890625 151360.812500 661475.562500 143 125 130
257675.343750 151347.593750 661417.750000 182 160 162
258352.453125 151331.875000 661349.062500 211 184 187
259065.671875 151337.359375 661373.000000 166 139 140
259797.968750 151353.921875 661445.375000 156 125 128
260530.484375 151370.500000 661517.875000 156 127 129
263350.750000 151372.890625 661528.312500 154 131 135
266122.750000 151347.781250 661418.562500 155 137 139
266825.000000 151346.843750 661414.437500 156 135 138
267549.750000 151358.609375 661465.937500 153 130 134
268293.031250 151380.796875 661562.875000 154 130 134
269035.062500 151402.171875 661656.250000 154 130 133
269752.625000 151409.671875 661689.062500 155 131 130
270445.000000 151403.046875 661660.062500 159 133 132
271153.812500 151405.625000 661671.375000 167 142 139
271876.156250 151415.750000 661715.625000 176 152 147
272607.562500 151430.843750 661781.562500 174 150 144
273340.062500 151446.453125 661849.812500 163 139 134
274062.250000 151456.296875 661892.812500 164 141 135
274815.375000 151483.156250 662010.187500 173 150 144
275576.625000 151514.328125 662146.375000 161 137 133
276339.437500 151546.187500 662285.625000 156 133 128
277095.125000 151574.000000 662407.187500 160 137 133
277820.125000 151584.921875 662454.937500 164 141 138
278565.562500 151606.921875 662551.062500 169 146 141
279311.812500 151629.234375 662648.625000 165 143 138
280055.562500 151650.093750 662739.750000 168 148 141
280797.937500 151670.109375 662827.187500 167 148 140
281519.218750 151678.656250 662864.562500 162 146 137
282252.750000 151693.734375 662930.500000 168 151 142
282976.218750 151703.359375 662972.500000 168 152 143
283709.968750 151718.421875 663038.375000 169 156 145
284469.250000 151747.031250 663163.375000 171 159 147
285223.437500 151772.796875 663276.000000 174 159 148
286013.187500 151817.296875 663470.500000 176 162 151
286791.906250 151855.765625 663638.562500 181 168 156
287574.000000 151895.796875 663813.500000 183 169 158
288369.875000 151942.906250 664019.375000 185 170 160
289131.406250 151971.718750 664145.312500 187 173 163
289916.906250 152012.984375 664325.625000 183 171 160
290677.593750 152041.062500 664448.312500 184 172 160
291441.062500 152070.453125 664576.750000 186 175 162
292236.843750 152116.500000 664778.062500 190 180 169
293011.812500 152151.546875 664931.187500 194 185 173
293810.843750 152198.875000 665138.062500 189 183 169
294576.875000 152228.921875 665269.312500 190 184 172
295345.593750 152260.218750 665406.125000 195 190 178
296149.656250 152309.531250 665621.625000 201 197 183
296930.843750 152346.890625 665784.875000 206 202 187
297750.250000 152403.625000 666032.812500 204 201 186
298545.406250 152447.687500 666225.375000 201 196 182
299339.000000 152490.765625 666413.625000 205 199 185
300152.343750 152543.687500 666644.875000 215 210 195
300925.875000 152576.140625 666786.750000 221 215 201
301735.875000 152626.906250 667008.625000 219 213 199
302525.031250 152666.937500 667183.500000 213 206 194
303314.406250 152706.859375 667358.000000 213 205 195
304127.468750 152758.515625 667583.750000 221 214 203
304905.000000 152792.109375 667730.562500 227 221 210
305713.937500 152841.250000 667945.375000 225 219 208
306492.781250 152875.156250 668093.500000 220 215 204
307277.531250 152911.843750 668253.875000 220 215 205
308100.281250 152967.234375 668495.875000 222 218 209
308895.250000 153008.593750 668676.625000 225 220 213
309745.031250 153076.859375 668975.000000 226 223 215
310570.968750 153133.062500 669220.562500 229 226 216
311401.687500 153191.343750 669475.312500 230 228 216
312260.625000 153263.218750 669789.437500 230 229 216
313066.843750 153308.968750 669989.312500 234 233 220
313925.812500 153380.250000 670300.875000 238 237 224
314751.718750 153435.109375 670540.625000 239 239 227
315581.750000 153491.734375 670788.062500 241 239 228
316451.687500 153567.468750 671119.000000 240 239 228
317272.093750 153618.859375 671343.562500 242 241 229
318153.718750 153699.609375 671696.500000 244 243 231
319006.750000 153766.203125 671987.562500 245 245 233
319852.906250 153829.203125 672262.875000 246 247 236
320718.625000 153901.296875 672577.937500 248 248 238
321518.781250 153941.687500 672754.437500 248 248 239
322358.906250 154001.000000 673013.625000 245 246 237
323169.062500 154045.750000 673209.250000 243 244 236
323973.843750 154087.750000 673392.750000 247 248 240
324807.375000 154143.218750 673635.125000 252 254 246
325599.406250 154178.781250 673790.562500 253 254 246
326422.062500 154228.656250 674008.562500 244 245 237
327219.625000 154266.484375 674173.875000 233 234 227
328004.625000 154298.234375 674312.625000 231 232 224
328800.343750 154334.890625 674472.812500 233 234 227
329558.531250 154353.796875 674555.437500 231 231 224
330323.843750 154375.953125 674652.250000 227 227 221
331070.656250 154389.390625 674711.000000 235 233 227
331806.843750 154397.828125 674747.875000 233 230 225
332552.312500 154410.531250 674803.375000 223 220 216
333285.875000 154417.656250 674834.500000 226 224 219
334011.812500 154421.234375 674850.187500 228 226 221
334727.531250 154420.093750 674845.125000 231 229 224
335432.437500 154413.953125 674818.375000 229 227 221
336136.343750 154407.390625 674789.687500 222 220 212
336842.062500 154401.687500 674764.750000 223 222 213
337525.000000 154385.609375 674694.437500 226 226 217
338209.281250 154370.187500 674627.062500 226 226 217
338879.000000 154348.218750 674531.062500 227 225 215
339530.968750 154318.250000 674400.125000 226 224 214
340197.750000 154295.140625 674299.062500 227 225 214
340817.718750 154250.937500 674105.937500 228 225 214
341445.406250 154210.421875 673928.875000 229 225 214
342065.125000 154166.453125 673736.750000 230 226 215
342669.750000 154115.906250 673515.812500 229 226 216
343317.375000 154084.859375 673380.125000 229 228 219
343915.750000 154031.890625 673148.687500 229 230 222
344534.531250 153988.250000 672957.937500 229 230 222
345144.250000 153940.765625 672750.375000 229 231 222
345722.343750 153879.390625 672482.187500 228 230 222
346344.406250 153837.796875 672300.437500 228 230 222
346899.781250 153766.812500 671990.250000 228 231 223
347481.250000 153707.687500 671731.812500 230 232 224
348052.218750 153644.140625 671454.125000 228 231 223
348583.656250 153563.453125 671101.500000 229 231 224
349175.218750 153509.515625 670865.812500 238 240 235
349699.093750 153426.125000 670501.312500 242 244 239
350269.843750 153363.578125 670227.937500 239 242 237
350829.156250 153296.296875 669933.937500 239 245 239
351326.750000 153202.375000 669523.500000 245 252 245
351884.968750 153135.203125 669229.937500 253 255 254
352354.093750 153029.609375 668768.500000 253 255 255
352880.812500 152949.421875 668418.062500 247 254 252
353390.562500 152862.218750 668036.937500 242 250 247
353823.781250 152742.312500 667512.937500 241 249 246
354336.437500 152657.109375 667140.562500 246 255 252
354733.781250 152522.687500 666553.125000 253 255 255
355200.343750 152418.484375 666097.687500 246 255 253
355651.531250 152308.125000 665615.437500 242 255 250
356017.375000 152161.718750 664975.625000 246 255 253
356489.875000 152061.390625 664537.187500 241 255 250
356827.281250 151903.937500 663849.125000 230 246 239
357243.875000 151780.765625 663310.812500 227 242 236
357650.000000 151653.640625 662755.187500 235 248 243
357964.000000 151488.015625 662031.437500 238 250 247
358406.531250 151377.343750 661547.812500 233 245 243
358712.687500 151209.609375 660814.750000 226 239 239
359114.062500 151082.593750 660259.687500 222 235 238
359509.718750 150953.671875 659696.250000 221 234 238
359802.875000 150782.312500 658947.375000 219 231 235
360228.250000 150666.906250 658443.000000 218 229 236
360511.843750 150492.765625 657682.000000 223 233 241
360891.687500 150359.406250 657099.187500 233 243 246
361273.843750 150227.515625 656522.812500 233 242 245
361563.000000 150057.546875 655780.000000 224 235 242
361994.687500 149947.265625 655298.062500 225 236 243
362296.531250 149783.734375 654583.375000 236 244 249
362695.125000 149660.734375 654045.875000 241 249 255
363098.968750 149540.390625 653519.937500 234 243 252
363410.187500 149382.421875 652829.562500 227 236 245
363852.687500 149278.906250 652377.187500 230 241 250
364177.906250 149127.765625 651716.687500 238 250 255
364605.406250 149019.015625 651241.437500 240 255 255
365027.218750 148908.343750 650757.812500 236 253 255
365339.812500 148753.640625 650081.687500 225 243 253
365765.750000 148645.562500 649609.375000 214 232 248
366042.625000 148477.437500 648874.625000 211 229 245
366408.875000 148346.140625 648300.812500 212 231 244
366768.000000 148212.437500 647716.562500 211 230 242
367031.281250 148040.593750 646965.500000 208 227 238
367439.562500 147927.765625 646472.437500 207 225 234
367703.343750 147757.296875 645727.437500 210 226 236
368061.156250 147625.171875 645150.062500 211 227 236
368427.562500 147496.984375 644589.812500 208 225 235
368710.875000 147336.062500 643886.562500 210 226 239
369142.906250 147235.062500 643445.187500 215 231 246
369450.468750 147084.875000 642788.875000 221 239 255
369848.750000 146971.296875 642292.500000 223 241 255
370253.531250 146860.718750 641809.250000 214 231 251
370573.468750 146716.953125 641180.937500 202 220 240
371020.281250 146623.859375 640774.125000 205 225 238
371344.437500 146482.718750 640157.312500 223 243 247
371745.843750 146372.515625 639675.687500 228 248 248
372156.125000 146266.203125 639211.125000 221 241 239
372496.187500 146132.734375 638627.812500 219 238 237
372962.781250 146049.296875 638263.187500 218 238 239
373335.656250 145929.531250 637739.812500 218 239 240
373787.281250 145840.921875 637352.562500 223 242 242
374253.625000 145758.359375 636991.750000 227 243 243
374654.000000 145650.468750 636520.250000 226 245 246
375154.718750 145581.890625 636220.562500 217 241 248
375586.468750 145486.843750 635805.187500 207 231 250
376094.906250 145421.812500 635520.937500 211 233 251
376606.687500 145358.281250 635243.312500 219 241 253
377041.906250 145265.500000 634837.812500 225 246 255
377546.906250 145199.875000 634551.062500 234 255 255
377969.968750 145103.031250 634127.812500 238 255 255
378458.843750 145031.734375 633816.312500 239 254 255
378945.500000 144959.875000 633502.187500 241 255 255
379369.218750 144864.218750 633084.125000 240 255 255
379875.250000 144800.281250 632804.750000 239 255 255
380271.406250 144694.765625 632343.625000 241 255 255
380724.062500 144611.078125 631977.937500 243 255 255
381154.593750 144519.296875 631576.812500 239 254 255
381499.312500 144395.359375 631035.187500 236 254 255
381940.625000 144308.359375 630655.000000 238 254 254
382243.562500 144169.468750 630048.000000 232 248 251
382626.062500 144061.015625 629574.062500 227 245 252
382988.625000 143945.453125 629069.000000 225 239 245
383245.281250 143790.562500 628392.125000 205 212 218
383627.812500 143683.359375 627923.562500 187 188 197
383864.218750 143521.875000 627217.937500 173 170 182
384189.000000 143393.968750 626658.875000 137 133 146
256876.750000 151995.484375 661174.000000 147 135 146
257558.484375 151982.546875 661117.750000 156 141 151
258234.562500 151966.359375 661047.312500 175 156 165
258947.265625 151971.734375 661070.687500 160 140 146
259678.984375 151988.218750 661142.437500 155 135 140
292187.750000 152798.328125 664666.375000 153 131 126
292969.000000 152836.859375 664834.000000 160 138 134
293776.562500 152888.921875 665060.437500 161 141 136
294548.125000 152922.031250 665204.437500 158 139 135
295322.187500 152956.250000 665353.312500 158 139 136
296134.093750 153009.890625 665586.687500 157 138 134
296920.812500 153050.281250 665762.375000 150 132 128
298548.906250 153158.531250 666233.187500 151 132 128
299347.593750 153204.406250 666432.750000 156 136 132
300167.187500 153260.734375 666677.812500 153 134 129
304940.343750 153520.546875 667808.000000 153 135 130
305751.656250 153571.062500 668027.750000 157 140 135
306532.375000 153606.031250 668179.812500 156 139 133
307317.750000 153643.140625 668341.250000 155 138 133
308140.062500 153698.515625 668582.187500 156 141 137
308933.468750 153739.265625 668759.375000 161 146 142
309781.000000 153806.687500 669052.625000 168 155 149
310605.625000 153862.453125 669295.250000 168 156 150
311434.343750 153919.984375 669545.500000 163 152 145
312289.812500 153990.453125 669852.062500 164 156 147
313093.125000 154034.921875 670045.500000 173 163 154
313947.718750 154104.390625 670347.625000 178 170 160
314770.906250 154158.140625 670581.437500 175 167 158
315597.781250 154213.468750 670822.125000 171 161 153
316462.406250 154286.921875 671141.687500 172 165 156
317278.437500 154336.421875 671357.000000 183 175 166
318153.781250 154414.484375 671696.562500 188 179 171
319002.375000 154479.265625 671978.312500 185 180 170
319843.812500 154540.265625 672243.750000 186 181 171
320702.468750 154609.312500 672544.062500 186 182 172
321497.375000 154647.375000 672709.625000 184 181 172
322329.218750 154703.015625 672951.625000 185 182 172
323132.812500 154744.859375 673133.687500 186 184 175
323930.531250 154783.718750 673302.750000 189 186 177
324754.906250 154835.125000 673526.312500 188 187 177
325540.593750 154867.890625 673668.875000 185 186 176
326353.437500 154913.406250 673866.875000 179 180 171
327143.343750 154947.843750 674016.687500 171 172 162
327920.562500 154976.171875 674139.875000 173 173 163
328706.187500 155008.296875 674279.625000 173 171 162
329457.750000 155024.281250 674349.187500 173 172 162
330213.531250 155042.156250 674426.937500 182 180 170
330953.281250 155052.468750 674471.750000 176 173 163
