ply
		format ascii 1.0
		element vertex 56646
		property float x
		property float y
		property float z
		property uchar red
		property uchar green
		property uchar blue
		end_header
623403.625000 -54892.640625 1517293.500000 255 255 254
624652.062500 -54860.464844 1516404.000000 255 255 255
625733.937500 -54813.863281 1515116.000000 254 254 254
627210.687500 -54802.003906 1514788.250000 255 255 255
628321.562500 -54758.320312 1513580.750000 255 255 255
629218.375000 -54696.253906 1511865.000000 255 255 255
630211.937500 -54642.882812 1510389.875000 255 255 255
631478.625000 -54613.417969 1509575.375000 255 255 255
633146.875000 -54618.734375 1509722.375000 255 255 255
634966.937500 -54637.089844 1510229.750000 255 255 255
636759.812500 -54653.019531 1510670.125000 255 255 255
638721.625000 -54683.332031 1511508.000000 255 255 255
640864.500000 -54728.957031 1512769.000000 255 255 255
642935.562500 -54768.234375 1513854.750000 255 255 255
645370.812500 -54838.261719 1515790.375000 255 255 255
647749.625000 -54903.156250 1517584.125000 255 255 255
650114.500000 -54966.546875 1519336.375000 255 255 255
652468.125000 -55028.675781 1521053.625000 255 255 255
654429.062500 -55057.460938 1521849.250000 255 255 255
656709.187500 -55112.890625 1523381.375000 255 255 255
658962.312500 -55165.781250 1524843.375000 255 255 255
661217.687500 -55218.605469 1526303.500000 255 255 255
663559.812500 -55278.402344 1527956.250000 255 255 255
665600.687500 -55312.863281 1528908.875000 255 255 255
667760.937500 -55357.058594 1530130.500000 255 255 255
669638.875000 -55377.687500 1530700.750000 255 255 255
671615.250000 -55406.339844 1531492.750000 255 255 255
674037.562500 -55471.558594 1533295.375000 255 255 255
676414.812500 -55532.753906 1534986.875000 255 255 255
679176.312500 -55625.128906 1537540.250000 255 255 255
681626.750000 -55691.640625 1539378.750000 255 255 255
684168.625000 -55765.289062 1541414.375000 255 255 255
687102.500000 -55870.464844 1544321.500000 255 255 255
689695.000000 -55947.441406 1546449.250000 255 255 255
692817.937500 -56066.976562 1549753.375000 255 255 255
695629.375000 -56160.796875 1552346.625000 255 255 255
698457.375000 -56255.507812 1554964.625000 255 255 255
701608.875000 -56375.761719 1558288.625000 255 255 255
704234.062500 -56453.257812 1560430.625000 255 255 255
707378.812500 -56571.945312 1563711.375000 255 255 255
710188.250000 -56663.320312 1566237.000000 255 255 255
713009.312500 -56755.195312 1568776.500000 255 255 255
716200.812500 -56876.050781 1572117.125000 255 255 255
718883.687500 -56956.050781 1574328.375000 255 255 255
722120.750000 -57079.488281 1577740.250000 255 255 255
725041.375000 -57177.386719 1580446.375000 255 255 255
727936.562500 -57272.839844 1583084.750000 255 255 255
731129.250000 -57391.203125 1586356.500000 255 255 255
733752.812500 -57464.449219 1588381.000000 255 255 255
736850.750000 -57574.421875 1591420.875000 255 255 255
739594.625000 -57656.292969 1593683.875000 255 255 255
742359.875000 -57739.453125 1595982.500000 255 255 255
745545.375000 -57854.839844 1599172.000000 255 255 255
748280.500000 -57934.832031 1601383.000000 255 255 255
751536.812500 -58054.722656 1604696.875000 255 255 255
754414.187500 -58144.863281 1607188.500000 255 255 255
757299.437500 -58235.203125 1609685.625000 255 255 255
760578.312500 -58355.332031 1613006.125000 255 255 255
763341.937500 -58435.484375 1615221.625000 255 255 255
766652.500000 -58557.046875 1618581.625000 255 255 255
769589.562500 -58649.601562 1621140.000000 255 255 255
772539.125000 -58742.687500 1623713.000000 255 255 255
775884.937500 -58865.425781 1627105.625000 255 255 255
778691.187500 -58946.773438 1629354.125000 255 255 255
782106.937500 -59073.792969 1632865.125000 255 255 255
785177.062500 -59174.203125 1635640.625000 255 255 255
788257.750000 -59274.960938 1638425.750000 255 255 255
791712.625000 -59403.355469 1641974.625000 255 255 255
794564.812500 -59486.062500 1644260.625000 255 255 255
798034.125000 -59614.500000 1647810.875000 255 255 255
801139.312500 -59715.234375 1650595.375000 255 255 255
804255.875000 -59816.378906 1653391.000000 255 255 255
807760.625000 -59945.886719 1656970.750000 255 255 255
810655.000000 -60029.636719 1659285.625000 255 255 255
814233.437500 -60163.558594 1662987.500000 255 255 255
817451.250000 -60270.320312 1665938.500000 255 255 255
820720.812500 -60380.421875 1668981.875000 255 255 255
824430.750000 -60522.378906 1672905.625000 255 255 255
827488.000000 -60615.910156 1675491.000000 255 255 255
831334.875000 -60766.757812 1679660.625000 255 255 255
834793.687500 -60888.652344 1683029.875000 255 255 255
838307.250000 -61014.015625 1686495.000000 255 255 255
842302.937500 -61173.851562 1690913.000000 255 255 255
845542.125000 -61278.179688 1693796.875000 255 255 255
849576.500000 -61439.578125 1698258.000000 255 255 255
853090.437500 -61562.730469 1701662.125000 255 255 255
856682.375000 -61690.976562 1705207.000000 255 255 255
860923.125000 -61865.300781 1710025.500000 255 255 255
864420.625000 -61985.601562 1713350.750000 255 255 255
868882.500000 -62174.398438 1718569.250000 255 255 255
872766.375000 -62321.128906 1722625.125000 255 255 255
876751.437500 -62474.453125 1726863.125000 255 255 255
881469.375000 -62679.253906 1732524.000000 255 255 255
885284.875000 -62819.156250 1736391.125000 255 255 255
890163.062500 -63033.730469 1742322.250000 255 255 255
894339.937500 -63197.855469 1746858.750000 255 255 255
898585.875000 -63366.167969 1751511.125000 255 255 255
903637.500000 -63590.484375 1757711.500000 255 255 255
907663.687500 -63741.859375 1761895.625000 255 255 255
912947.187500 -63980.718750 1768498.000000 255 255 255
917483.562500 -64166.351562 1773629.125000 255 255 255
922174.312500 -64361.992188 1779036.875000 255 255 255
927840.562500 -64624.777344 1786300.500000 255 255 255
932340.250000 -64805.402344 1791293.250000 255 255 253
938411.187500 -65094.281250 1799278.125000 255 255 253
943601.000000 -65320.988281 1805544.500000 255 255 253
949020.187500 -65562.617188 1812223.500000 255 255 251
955667.000000 -65887.906250 1821214.875000 254 255 249
960877.500000 -66113.054688 1827438.125000 254 255 249
967980.562500 -66467.242188 1837228.375000 254 255 249
974003.062500 -66745.960938 1844932.375000 254 255 249
980171.187500 -67033.515625 1852880.750000 255 255 250
987697.062500 -67412.585938 1863358.500000 255 255 251
993419.187500 -67667.265625 1870398.375000 255 255 252
1001022.937500 -68048.843750 1880945.625000 255 255 253
1007304.875000 -68339.226562 1888972.000000 255 255 255
1013544.937500 -68625.609375 1896888.000000 255 255 255
1021172.375000 -69004.609375 1907364.000000 255 255 255
1026907.062500 -69254.460938 1914270.125000 255 255 255
1034357.812500 -69618.820312 1924341.375000 255 255 255
1040428.375000 -69889.031250 1931810.250000 255 255 255
1046385.750000 -70150.578125 1939039.875000 255 255 255
1053678.250000 -70500.437500 1948710.250000 255 255 255
1059201.625000 -70730.781250 1955077.250000 255 255 255
1066421.250000 -71073.281250 1964544.250000 255 255 255
1072300.000000 -71325.234375 1971508.625000 255 255 255
1078275.500000 -71582.632812 1978623.375000 255 255 255
1085725.375000 -71936.718750 1988410.750000 255 255 255
1091525.875000 -72180.351562 1995145.000000 255 255 255
1099927.750000 -72594.734375 2006599.000000 255 255 255
1107759.250000 -72969.937500 2016969.875000 255 255 255
1115300.500000 -73324.601562 2026773.375000 255 255 255
1122463.500000 -73653.085938 2035852.875000 255 255 255
1126564.375000 -73779.757812 2039354.375000 255 255 255
1134988.625000 -74188.539062 2050653.375000 255 255 255
1142536.000000 -74538.546875 2060328.125000 255 255 255
1154297.375000 -75161.601562 2077550.125000 255 255 255
1170974.875000 -76101.781250 2103537.750000 253 253 254
1185384.125000 -76891.234375 2125359.000000 255 255 255
1224365.375000 -79268.539062 2191070.250000 247 247 242
1272064.875000 -82200.171875 2272103.750000 192 189 182
662177.437500 -57789.085938 1645768.500000 163 153 143
647305.312500 -56342.148438 1604561.375000 237 235 228
632629.250000 -54919.839844 1564055.625000 255 255 255
626384.187500 -54234.992188 1544551.875000 252 251 250
624299.687500 -53913.023438 1535382.625000 255 255 254
621285.812500 -53512.691406 1523981.625000 254 254 252
621691.562500 -53408.207031 1521006.125000 254 254 252
621879.125000 -53285.578125 1517513.750000 255 255 252
622548.750000 -53204.781250 1515212.750000 255 255 254
623758.937500 -53170.480469 1514235.875000 255 255 255
624816.562500 -53123.386719 1512894.625000 254 254 254
626291.375000 -53111.910156 1512567.875000 255 255 255
627396.312500 -53069.210938 1511351.875000 255 255 255
628286.000000 -53008.566406 1509624.750000 255 255 255
629269.625000 -52956.136719 1508131.625000 255 255 255
630519.000000 -52926.281250 1507281.375000 255 255 255
632171.312500 -52930.316406 1507396.250000 255 255 255
633975.625000 -52947.023438 1507872.000000 255 255 255
635760.125000 -52961.996094 1508298.500000 255 255 255
637718.562500 -52991.343750 1509134.250000 255 255 255
639858.125000 -53035.562500 1510393.500000 255 255 255
641928.500000 -53073.835938 1511483.500000 255 255 255
644366.250000 -53142.218750 1513431.000000 255 255 255
646747.937500 -53205.644531 1515237.250000 255 255 255
649115.437500 -53267.593750 1517001.500000 255 255 255
651472.375000 -53328.367188 1518732.375000 255 255 255
653433.500000 -53356.519531 1519534.000000 255 255 255
655710.000000 -53410.226562 1521063.625000 255 255 255
657955.562500 -53461.148438 1522513.750000 255 255 255
660202.187500 -53511.910156 1523959.375000 255 255 255
662536.875000 -53569.542969 1525600.750000 255 255 255
664573.437500 -53602.851562 1526549.375000 255 255 255
666728.562500 -53645.539062 1527765.000000 255 255 255
668603.687500 -53665.539062 1528334.500000 255 255 255
670577.000000 -53693.300781 1529125.125000 255 255 255
672992.750000 -53756.273438 1530918.625000 255 255 255
675363.687500 -53815.371094 1532601.625000 255 255 255
678117.250000 -53904.593750 1535142.625000 255 255 255
680562.625000 -53968.953125 1536975.500000 255 255 255
683097.125000 -54040.058594 1539000.375000 255 255 255
686018.375000 -54141.339844 1541884.875000 255 255 255
688599.062500 -54215.324219 1543991.875000 255 255 255
691704.125000 -54330.152344 1547262.000000 255 255 255
694501.312500 -54420.300781 1549829.375000 255 255 255
697314.062500 -54511.238281 1552419.125000 255 255 255
700445.750000 -54626.625000 1555705.250000 255 255 255
703056.187500 -54700.910156 1557820.875000 255 255 255
706180.437500 -54814.726562 1561062.125000 255 255 255
708973.312500 -54902.351562 1563557.625000 255 255 255
711777.687500 -54990.453125 1566066.625000 255 255 255
714948.500000 -55106.382812 1569368.125000 255 255 255
717616.687500 -55183.125000 1571553.750000 255 255 255
720833.937500 -55301.636719 1574928.750000 255 255 255
723739.062500 -55395.703125 1577607.750000 255 255 255
726618.187500 -55487.351562 1580217.750000 255 255 255
729789.500000 -55600.835938 1583449.625000 255 255 255
732397.562500 -55670.980469 1585447.375000 255 255 255
735473.812500 -55776.316406 1588447.125000 255 255 255
738198.312500 -55854.550781 1590675.125000 255 255 255
740945.562500 -55934.144531 1592941.875000 255 255 255
744111.437500 -56044.906250 1596096.250000 255 255 255
746834.937500 -56121.914062 1598289.375000 255 255 255
750075.062500 -56237.312500 1601575.750000 255 255 255
752939.875000 -56324.113281 1604047.750000 255 255 255
755813.312500 -56411.160156 1606526.750000 255 255 255
759077.437500 -56526.906250 1609823.125000 255 255 255
761830.187500 -56604.144531 1612022.750000 255 255 255
765127.750000 -56721.417969 1615362.500000 255 255 255
768057.062500 -56810.929688 1617911.750000 255 255 255
770996.062500 -56900.753906 1620469.875000 255 255 255
774323.312500 -57018.769531 1623830.750000 255 255 255
777112.250000 -57096.707031 1626050.375000 255 255 255
780503.125000 -57218.425781 1629516.750000 255 255 255
783551.750000 -57314.566406 1632254.875000 255 255 255
786612.437500 -57411.164062 1635005.875000 255 255 255
790044.500000 -57534.382812 1638515.000000 255 255 255
792882.437500 -57613.886719 1640779.125000 255 255 255
796331.125000 -57737.328125 1644294.500000 255 255 255
799416.875000 -57833.964844 1647046.625000 255 255 255
802516.937500 -57931.210938 1649816.125000 255 255 255
806006.125000 -58056.062500 1653371.750000 255 255 255
808892.625000 -58137.054688 1655678.375000 255 255 255
812458.375000 -58266.406250 1659362.125000 255 255 255
815664.875000 -58369.492188 1662297.875000 255 255 255
818920.625000 -58475.644531 1665321.000000 255 255 255
822611.312500 -58612.328125 1669213.625000 255 255 255
825652.062500 -58702.218750 1671773.500000 255 255 255
829473.750000 -58847.125000 1675900.250000 255 255 255
832911.875000 -58964.250000 1679236.000000 255 255 255
836401.437500 -59084.511719 1682660.875000 255 255 255
840362.375000 -59237.488281 1687017.375000 255 255 255
843572.875000 -59337.023438 1689852.000000 255 255 255
847565.125000 -59491.007812 1694237.375000 255 255 255
851045.687500 -59608.500000 1697583.500000 255 255 255
854603.625000 -59730.898438 1701069.250000 255 255 255
858801.125000 -59897.390625 1705810.750000 255 255 255
862269.437500 -60012.425781 1709086.875000 255 255 255
866686.187500 -60192.851562 1714225.125000 255 255 255
870531.250000 -60332.894531 1718213.375000 255 255 255
874477.937500 -60479.382812 1722385.125000 255 255 255
879150.187500 -60675.332031 1727965.625000 255 255 255
882934.750000 -60809.328125 1731781.625000 255 255 255
887773.000000 -61015.179688 1737644.125000 255 255 255
891917.500000 -61172.597656 1742127.125000 255 255 255
896134.812500 -61334.343750 1746733.500000 255 255 255
901149.625000 -61549.890625 1752872.125000 255 255 255
905151.187500 -61695.488281 1757018.500000 255 255 255
910401.250000 -61925.402344 1763566.250000 255 255 255
914907.812500 -62103.902344 1768649.750000 255 255 255
919576.812500 -62292.679688 1774025.875000 255 255 255
925226.000000 -62546.937500 1781266.875000 255 255 255
929719.875000 -62722.218750 1786258.750000 255 255 253
935793.437500 -63003.132812 1794258.875000 255 255 253
940987.000000 -63223.785156 1800542.750000 255 255 252
946417.312500 -63459.410156 1807253.125000 255 255 251
953079.437500 -63776.507812 1816283.625000 254 255 249
958301.000000 -63996.121094 1822538.000000 254 255 249
965442.812500 -64342.824219 1832411.750000 254 255 249
971510.562500 -64616.691406 1840211.125000 255 255 250
977728.750000 -64899.441406 1848263.500000 255 255 250
985307.437500 -65271.183594 1858850.375000 255 255 252
991057.062500 -65520.511719 1865951.000000 255 255 253
998699.375000 -65893.726562 1876579.625000 255 255 253
1005007.375000 -66177.585938 1884663.625000 255 255 254
1011269.562500 -66457.296875 1892629.625000 255 255 255
1018935.562500 -66827.976562 1903186.000000 255 255 255
1024697.000000 -67072.515625 1910150.250000 255 255 255
1032170.187500 -67427.914062 1920271.500000 255 255 255
1038245.750000 -67690.781250 1927757.625000 255 255 255
1044192.125000 -67944.203125 1934975.000000 255 255 255
1051470.875000 -68283.156250 1944627.875000 255 255 255
1056976.375000 -68505.843750 1950970.000000 255 255 255
1064152.250000 -68835.710938 1960364.125000 255 255 255
1069998.125000 -69078.429688 1967276.375000 255 255 255
1075906.250000 -69324.210938 1974276.000000 255 255 255
1083240.500000 -69660.734375 1983859.875000 255 255 255
1088933.375000 -69890.609375 1990406.375000 255 255 255
1097083.000000 -70276.960938 2001409.125000 255 255 255
1104602.625000 -70621.539062 2011222.500000 255 255 255
1111864.500000 -70948.335938 2020529.250000 255 255 255
1118945.625000 -71262.367188 2029472.500000 255 255 255
1123175.125000 -71393.914062 2033218.875000 255 255 255
1131266.625000 -71769.976562 2043928.750000 255 255 255
1138151.125000 -72068.171875 2052420.875000 255 255 255
1149059.625000 -72619.531250 2068123.000000 255 255 255
1164772.750000 -73471.851562 2092396.250000 254 253 254
1178519.875000 -74197.140625 2113051.500000 255 255 255
1217009.875000 -76474.460938 2177907.250000 251 250 246
1264462.750000 -79305.265625 2258525.250000 203 201 194
679598.062500 -57664.332031 1693545.250000 150 139 126
662292.812500 -56047.328125 1646055.375000 194 182 171
647196.750000 -54625.316406 1604292.250000 244 241 234
632323.687500 -53229.558594 1563300.250000 255 255 255
626002.937500 -52559.175781 1543611.750000 254 254 252
623885.062500 -52244.261719 1534363.000000 255 255 255
620832.812500 -51852.945312 1522870.375000 255 255 254
621232.625000 -51751.234375 1519883.375000 255 255 254
621395.625000 -51630.378906 1516333.875000 255 255 254
622031.500000 -51549.339844 1513953.875000 255 255 255
623208.812500 -51513.468750 1512900.375000 255 255 255
624237.437500 -51465.527344 1511492.375000 255 255 255
625699.750000 -51453.500000 1511139.125000 255 255 255
626798.562500 -51411.714844 1509912.000000 255 255 255
627694.125000 -51353.511719 1508202.625000 255 255 255
628684.750000 -51303.367188 1506729.875000 255 255 255
629927.187500 -51273.972656 1505866.625000 255 255 255
631566.250000 -51276.929688 1505953.500000 255 255 255
633357.562500 -51292.203125 1506402.000000 255 255 255
635135.125000 -51306.285156 1506815.625000 255 255 255
637089.750000 -51334.566406 1507646.250000 255 255 255
639225.625000 -51377.273438 1508900.375000 255 255 255
641294.562500 -51414.398438 1509990.750000 255 255 255
643732.625000 -51480.859375 1511942.625000 255 255 255
646116.125000 -51542.636719 1513757.000000 255 255 255
648485.937500 -51603.015625 1515530.250000 255 255 255
650845.062500 -51662.250000 1517269.875000 255 255 255
652807.125000 -51689.746094 1518077.500000 255 255 255
655081.937500 -51741.812500 1519606.625000 255 255 255
657324.062500 -51791.046875 1521052.500000 255 255 255
659564.937500 -51839.941406 1522488.500000 255 255 255
661895.312500 -51895.609375 1524123.500000 255 255 255
663928.625000 -51927.777344 1525068.125000 255 255 255
666080.625000 -51969.046875 1526280.250000 255 255 255
667954.000000 -51988.425781 1526849.375000 255 255 255
669924.500000 -52015.253906 1527637.375000 255 255 255
672335.750000 -52076.089844 1529424.000000 255 255 255
674701.125000 -52133.089844 1531098.000000 255 255 255
677447.312500 -52219.164062 1533626.000000 255 255 255
679888.000000 -52281.339844 1535452.000000 255 255 255
682416.937500 -52349.984375 1537468.000000 255 255 255
685328.000000 -52447.542969 1540333.250000 255 255 255
687899.812500 -52518.734375 1542424.000000 255 255 255
690992.500000 -52629.261719 1545670.125000 255 255 255
693778.312500 -52715.945312 1548215.875000 255 255 255
696579.625000 -52803.394531 1550784.250000 255 255 255
699697.875000 -52914.394531 1554044.250000 255 255 255
702298.562500 -52985.824219 1556142.000000 255 255 255
705408.250000 -53095.234375 1559355.250000 255 255 255
708189.375000 -53179.453125 1561828.625000 255 255 255
710982.500000 -53264.179688 1564317.000000 255 255 255
714138.625000 -53375.636719 1567590.500000 255 255 255
716797.562500 -53449.503906 1569759.875000 255 255 255
720000.375000 -53563.488281 1573107.500000 255 255 255
722895.000000 -53654.070312 1575767.750000 255 255 255
725762.812500 -53742.250000 1578357.500000 255 255 255
728920.000000 -53851.394531 1581563.000000 255 255 255
731517.750000 -53918.804688 1583542.750000 255 255 255
734578.812500 -54019.980469 1586514.125000 255 255 255
737290.750000 -54095.070312 1588719.500000 255 255 255
740026.625000 -54171.574219 1590966.250000 255 255 255
743180.000000 -54278.214844 1594098.250000 255 255 255
745896.062500 -54352.507812 1596280.125000 255 255 255
749126.437500 -54463.851562 1599550.250000 255 255 255
751982.875000 -54547.570312 1602008.875000 255 255 255
754849.500000 -54631.640625 1604478.125000 255 255 255
758104.062500 -54743.355469 1607759.000000 255 255 255
760851.500000 -54818.023438 1609951.875000 255 255 255
764141.562500 -54931.359375 1613280.500000 255 255 255
767066.187500 -55017.980469 1615824.500000 255 255 255
769998.937500 -55104.796875 1618374.125000 255 255 255
773315.000000 -55218.593750 1621716.250000 255 255 255
776092.875000 -55293.539062 1623917.375000 255 255 255
779468.500000 -55410.644531 1627356.625000 255 255 255
782504.000000 -55503.109375 1630072.250000 255 255 255
785551.500000 -55596.011719 1632800.625000 255 255 255
788969.000000 -55714.632812 1636284.375000 255 255 255
791796.812500 -55791.179688 1638532.625000 255 255 255
795231.125000 -55910.031250 1642023.125000 255 255 255
798303.875000 -56003.000000 1644753.500000 255 255 255
801390.812500 -56096.550781 1647501.000000 255 255 255
804868.125000 -56216.960938 1651037.375000 255 255 255
807748.687500 -56295.261719 1653336.875000 255 255 255
811304.312500 -56420.160156 1657005.125000 255 255 255
814502.125000 -56519.691406 1659928.250000 255 255 255
817748.312500 -56622.140625 1662937.125000 255 255 255
821425.250000 -56753.906250 1666806.875000 255 255 255
824454.812500 -56840.476562 1669349.375000 255 255 255
828259.875000 -56980.023438 1673447.750000 255 255 255
831685.062500 -57092.894531 1676762.625000 255 255 255
835158.687500 -57208.597656 1680160.750000 255 255 255
839097.625000 -57355.609375 1684478.375000 255 255 255
842289.875000 -57451.070312 1687281.875000 255 255 255
846256.375000 -57598.824219 1691621.250000 255 255 255
849715.937500 -57711.511719 1694930.875000 255 255 255
853252.250000 -57828.933594 1698379.375000 255 255 255
857423.375000 -57988.785156 1703074.125000 255 255 255
860872.750000 -58099.257812 1706318.500000 255 255 255
865262.000000 -58272.554688 1711408.125000 255 255 255
869082.750000 -58406.925781 1715354.500000 255 255 255
873004.687500 -58547.515625 1719483.500000 255 255 255
877647.375000 -58735.753906 1725011.875000 255 255 255
881412.125000 -58864.574219 1728795.125000 255 255 255
886223.875000 -59062.636719 1734612.000000 255 255 255
890349.375000 -59214.230469 1739064.250000 255 255 255
894549.125000 -59370.125000 1743642.750000 255 255 255
899540.812500 -59577.832031 1749742.750000 255 255 255
903525.312500 -59718.101562 1753862.375000 255 255 255
908751.875000 -59939.722656 1760371.250000 255 255 255
913237.937500 -60111.687500 1765421.625000 255 255 255
917890.312500 -60293.871094 1770772.250000 255 255 255
923524.312500 -60539.656250 1777990.750000 255 255 255
928011.937500 -60709.441406 1782977.125000 255 255 253
934082.750000 -60981.898438 1790978.875000 255 255 253
939274.687500 -61195.980469 1797266.250000 255 255 253
944708.375000 -61424.910156 1803989.750000 255 255 251
951377.187500 -61733.054688 1813039.625000 254 255 249
956603.750000 -61946.562500 1819310.125000 254 255 249
963768.250000 -62284.445312 1829233.375000 255 255 250
969863.750000 -62552.015625 1837091.750000 255 255 250
976113.187500 -62828.425781 1845209.625000 255 255 250
983726.250000 -63191.312500 1855867.250000 255 255 252
989494.125000 -63434.460938 1863008.250000 255 255 253
997164.937500 -63798.382812 1873696.375000 255 255 253
1003492.875000 -64075.109375 1881823.500000 255 255 254
1009775.000000 -64347.808594 1889832.375000 255 255 255
1017473.562500 -64709.511719 1900455.250000 255 255 255
1023259.437500 -64948.375000 1907470.500000 255 255 255
1030755.250000 -65294.613281 1917639.125000 255 255 255
1036838.750000 -65550.195312 1925145.250000 255 255 255
1042783.750000 -65796.023438 1932365.125000 255 255 255
1050065.250000 -66125.046875 1942028.250000 255 255 255
1055570.375000 -66341.140625 1948374.750000 255 255 255
1062729.875000 -66660.156250 1957743.875000 255 255 255
1068563.875000 -66894.953125 1964639.500000 255 255 255
1074435.125000 -67131.148438 1971576.250000 255 255 255
1081699.500000 -67453.304688 1981037.750000 255 255 255
1087323.250000 -67672.085938 1987463.250000 255 255 255
1095314.875000 -68037.109375 1998183.625000 255 255 255
1102648.000000 -68359.898438 2007663.625000 255 255 255
1109739.000000 -68666.453125 2016666.750000 255 255 255
1116758.875000 -68967.429688 2025506.250000 255 255 255
1121051.125000 -69099.125000 2029373.875000 255 255 255
1128916.000000 -69450.101562 2039681.750000 255 255 255
1135380.125000 -69713.718750 2047423.875000 255 255 255
1145751.375000 -70215.765625 2062168.625000 255 255 255
1160885.375000 -71007.218750 2085412.750000 254 254 254
1174256.625000 -71688.031250 2105407.750000 255 255 255
1212269.500000 -73867.757812 2169424.250000 253 254 249
1259155.250000 -76578.812500 2249045.250000 218 219 212
679585.000000 -55860.882812 1693512.625000 150 138 124
662275.687500 -54294.089844 1646012.875000 207 195 181
647031.000000 -52904.375000 1603881.375000 249 245 237
631990.375000 -51538.617188 1562476.250000 255 255 253
625561.187500 -50880.445312 1542522.625000 255 255 253
623356.062500 -50568.378906 1533061.875000 255 255 255
620238.062500 -50184.089844 1521411.500000 255 255 255
620626.000000 -50084.730469 1518399.250000 255 255 255
620740.750000 -49963.894531 1514736.000000 255 255 255
621309.625000 -49880.144531 1512196.875000 255 255 255
622422.000000 -49840.343750 1510990.375000 255 255 255
623395.187500 -49789.632812 1509453.000000 255 255 255
624835.937500 -49776.437500 1509052.875000 255 255 255
625925.562500 -49735.402344 1507808.875000 255 255 255
626835.062500 -49680.304688 1506138.500000 255 255 255
627841.250000 -49633.132812 1504708.375000 255 255 255
629072.250000 -49603.921875 1503822.875000 255 255 255
630685.812500 -49604.957031 1503854.125000 255 255 255
632452.562500 -49617.996094 1504249.500000 255 255 255
634217.562500 -49630.835938 1504638.750000 255 255 255
636165.125000 -49657.863281 1505458.125000 255 255 254
638292.687500 -49698.769531 1506698.250000 255 255 254
640357.562500 -49734.601562 1507784.500000 255 255 255
642793.250000 -49798.980469 1509736.375000 255 255 255
645176.625000 -49859.000000 1511555.875000 255 255 255
647546.937500 -49917.714844 1513335.875000 255 255 255
649907.000000 -49975.343750 1515083.125000 255 255 255
651868.437500 -50002.113281 1515894.625000 255 255 255
654139.500000 -50052.441406 1517420.375000 255 255 255
656375.000000 -50099.808594 1518856.375000 255 255 255
658608.062500 -50146.757812 1520279.750000 255 255 255
660931.500000 -50200.339844 1521904.125000 255 255 255
662960.062500 -50231.320312 1522843.375000 255 255 255
665106.375000 -50271.046875 1524047.750000 255 255 255
666975.875000 -50289.710938 1524613.625000 255 255 255
668941.875000 -50315.539062 1525396.625000 255 255 255
671344.187500 -50373.984375 1527168.500000 255 255 255
673701.000000 -50428.738281 1528828.500000 255 255 255
676435.812500 -50511.457031 1531336.250000 255 255 255
678868.812500 -50571.296875 1533150.250000 255 255 255
681387.937500 -50637.246094 1535149.625000 255 255 255
684284.000000 -50730.828125 1537986.750000 255 255 255
686842.312500 -50798.976562 1540052.875000 255 255 255
689914.875000 -50904.750000 1543259.500000 255 255 255
692685.062500 -50987.765625 1545776.250000 255 255 255
695469.875000 -51071.460938 1548313.625000 255 255 255
698568.187500 -51177.726562 1551535.125000 255 255 255
701154.187500 -51246.042969 1553606.375000 255 255 255
704243.500000 -51350.746094 1556780.500000 255 255 255
707007.062500 -51431.250000 1559221.250000 255 255 255
709782.625000 -51512.253906 1561677.000000 255 255 255
712916.687500 -51618.835938 1564908.125000 255 255 255
715560.625000 -51689.519531 1567051.000000 255 255 255
718742.187500 -51798.617188 1570358.500000 255 255 255
721620.312500 -51885.390625 1572989.125000 255 255 255
724471.687500 -51969.843750 1575549.500000 255 255 255
727607.687500 -52074.277344 1578715.625000 255 255 255
730190.187500 -52138.710938 1580669.000000 255 255 255
733229.500000 -52235.386719 1583599.875000 255 255 255
735923.437500 -52307.074219 1585773.125000 255 255 255
738642.625000 -52380.222656 1587990.875000 255 255 255
741778.437500 -52482.515625 1591092.000000 255 255 255
744484.500000 -52554.003906 1593259.250000 255 255 255
747701.812500 -52661.175781 1596508.375000 255 255 255
750548.125000 -52741.792969 1598952.375000 255 255 255
753405.125000 -52822.792969 1601408.125000 255 255 255
756649.750000 -52930.539062 1604674.625000 255 255 255
759389.312500 -53002.558594 1606857.875000 255 255 255
762671.125000 -53112.011719 1610176.125000 255 255 255
765590.625000 -53195.796875 1612716.250000 255 255 255
768516.562500 -53279.652344 1615258.500000 255 255 255
771819.500000 -53389.214844 1618580.000000 255 255 255
774583.625000 -53461.101562 1620759.375000 255 255 255
777940.312500 -53573.472656 1624166.125000 255 255 255
780959.000000 -53662.121094 1626853.625000 255 255 255
783990.000000 -53751.226562 1629555.000000 255 255 255
787388.500000 -53865.074219 1633006.500000 255 255 255
790204.437500 -53938.656250 1635237.250000 255 255 255
793619.750000 -54052.742188 1638696.000000 255 255 255
796674.687500 -54141.832031 1641396.875000 255 255 255
799745.062500 -54231.582031 1644117.750000 255 255 255
803206.250000 -54347.378906 1647628.375000 255 255 255
806078.312500 -54422.898438 1649917.875000 255 255 255
809620.750000 -54543.253906 1653566.625000 255 255 255
812807.062500 -54639.144531 1656473.625000 255 255 255
816038.812500 -54737.671875 1659460.750000 255 255 255
819695.750000 -54864.230469 1663297.500000 255 255 255
822708.750000 -54947.234375 1665813.875000 255 255 255
826488.562500 -55080.988281 1669868.875000 255 255 255
829893.375000 -55189.230469 1673150.375000 255 255 255
833342.875000 -55299.968750 1676507.625000 255 255 255
837246.125000 -55440.289062 1680761.625000 255 255 255
840409.812500 -55531.136719 1683515.875000 255 255 255
844333.437500 -55671.707031 1687777.500000 255 255 255
847760.187500 -55778.984375 1691029.750000 255 255 255
851262.062500 -55890.746094 1694417.875000 255 255 255
855390.062500 -56043.054688 1699035.500000 255 255 255
858809.125000 -56148.367188 1702228.250000 255 255 255
863152.437500 -56313.542969 1707235.750000 255 255 255
866934.000000 -56441.449219 1711113.375000 255 255 255
870816.875000 -56575.398438 1715174.375000 255 255 255
875413.375000 -56755.058594 1720621.000000 255 255 255
879147.812500 -56878.191406 1724353.875000 255 255 255
883917.937500 -57067.675781 1730098.500000 255 255 255
888010.000000 -57212.691406 1734494.875000 255 255 255
892178.687500 -57362.031250 1739022.375000 255 255 255
897131.375000 -57561.050781 1745056.000000 255 255 255
901089.062500 -57695.546875 1749133.375000 255 255 255
906279.000000 -57908.218750 1755581.000000 255 255 255
910730.562500 -58072.937500 1760574.625000 255 255 255
915355.625000 -58248.015625 1765882.500000 255 255 255
920964.812500 -58484.875000 1773063.125000 255 255 255
925441.625000 -58649.000000 1778038.875000 255 255 253
931506.625000 -58912.902344 1786039.500000 255 255 252
936696.625000 -59120.500000 1792333.250000 255 255 252
942136.187500 -59342.976562 1799078.000000 255 255 251
948813.125000 -59642.332031 1808153.375000 255 255 250
954046.500000 -59849.914062 1814446.625000 255 255 250
961244.750000 -60179.675781 1824443.750000 255 255 250
967381.625000 -60441.789062 1832390.250000 255 255 250
973680.062500 -60712.921875 1840610.000000 255 255 250
981345.625000 -61068.042969 1851376.125000 255 255 251
987141.937500 -61305.652344 1858579.625000 255 255 253
994857.500000 -61661.265625 1869360.625000 255 255 253
1001216.812500 -61931.566406 1877555.125000 255 255 254
1007529.875000 -62197.937500 1885630.625000 255 255 255
1015277.937500 -62551.656250 1896354.250000 255 255 255
1021098.812500 -62785.476562 1903442.875000 255 255 255
1028629.250000 -63123.277344 1913683.875000 255 255 255
1034726.000000 -63371.937500 1921222.375000 255 255 255
1040670.312500 -63610.300781 1928448.750000 255 255 255
1047955.437500 -63929.519531 1938126.375000 255 255 255
1053457.000000 -64138.890625 1944473.875000 255 255 255
1060593.375000 -64446.785156 1953808.125000 255 255 255
1066408.875000 -64673.367188 1960677.250000 255 255 255
1072226.875000 -64899.218750 1967524.250000 255 255 255
1079396.750000 -65205.847656 1976820.250000 255 255 255
1084927.125000 -65412.445312 1983083.625000 255 255 255
1092699.125000 -65753.125000 1993411.875000 255 255 255
1099753.750000 -66049.398438 2002393.750000 255 255 255
1106605.500000 -66332.359375 2010972.375000 255 255 255
1113589.375000 -66622.140625 2019757.625000 255 255 255
1118038.875000 -66759.476562 2023921.000000 255 255 255
1125642.125000 -67084.234375 2033766.625000 255 255 255
1131526.625000 -67305.507812 2040474.875000 255 255 255
1141133.875000 -67746.953125 2053858.000000 255 255 255
1155441.250000 -68465.210938 2075633.000000 254 254 254
1168263.750000 -69092.898438 2094662.625000 255 255 255
1205593.875000 -71164.867188 2157477.750000 255 255 250
1251448.375000 -73731.187500 2235279.750000 222 223 216
1307585.500000 -76892.429688 2331117.750000 145 147 136
679405.187500 -54044.242188 1693064.625000 148 136 122
662141.375000 -52531.648438 1645679.000000 213 198 183
646896.250000 -51186.769531 1603547.500000 252 246 237
631805.312500 -49861.128906 1562018.625000 255 255 253
625296.875000 -49217.992188 1541870.875000 255 255 254
623006.250000 -48909.339844 1532201.625000 255 255 255
619836.187500 -48533.441406 1520425.625000 255 255 255
620216.312500 -48436.757812 1517396.875000 255 255 255
620288.062500 -48316.558594 1513631.250000 255 255 255
620795.500000 -48230.828125 1510945.500000 255 255 255
621846.875000 -48187.687500 1509594.125000 255 255 255
622769.812500 -48134.851562 1507938.875000 255 255 255
624192.062500 -48120.769531 1507497.750000 255 255 255
625274.000000 -48080.597656 1506239.250000 255 255 255
626196.312500 -48028.390625 1504603.750000 255 255 255
627215.875000 -47983.886719 1503209.500000 255 255 255
628436.250000 -47954.933594 1502302.500000 255 255 255
630026.875000 -47954.308594 1502282.875000 255 255 255
631770.812500 -47965.324219 1502628.000000 255 255 255
633525.062500 -47977.066406 1502995.875000 255 255 255
635466.437500 -48002.886719 1503804.750000 255 255 253
637586.062500 -48042.007812 1505030.375000 255 255 252
639647.000000 -48076.519531 1506111.500000 255 255 254
642078.875000 -48138.671875 1508058.500000 255 255 255
644460.250000 -48196.734375 1509877.625000 255 255 255
646829.625000 -48253.617188 1511659.500000 255 255 255
649188.187500 -48309.410156 1513407.375000 255 255 255
651148.000000 -48335.324219 1514219.125000 255 255 255
653415.125000 -48383.871094 1515740.125000 255 255 255
655645.187500 -48429.441406 1517167.625000 255 255 255
657871.937500 -48474.542969 1518580.500000 255 255 255
660189.875000 -48526.125000 1520196.500000 255 255 255
662215.125000 -48555.992188 1521132.125000 255 255 255
664357.062500 -48594.250000 1522330.625000 255 255 255
666222.500000 -48612.152344 1522891.500000 255 255 255
668183.562500 -48636.921875 1523667.375000 255 255 255
670578.375000 -48693.070312 1525426.375000 255 255 255
672928.625000 -48745.714844 1527075.625000 255 255 255
675653.812500 -48825.203125 1529565.750000 255 255 255
678080.187500 -48882.773438 1531369.250000 255 255 255
680591.312500 -48946.156250 1533354.875000 255 255 255
683474.687500 -49035.941406 1536167.625000 255 255 255
686022.062500 -49101.253906 1538213.750000 255 255 255
689079.125000 -49202.644531 1541390.125000 255 255 255
691837.500000 -49282.281250 1543884.875000 255 255 255
694610.500000 -49362.574219 1546400.250000 255 255 255
697693.000000 -49464.437500 1549591.375000 255 255 255
700269.187500 -49530.003906 1551645.375000 255 255 255
703342.312500 -49630.332031 1554788.375000 255 255 255
706092.687500 -49707.460938 1557204.625000 255 255 255
708854.312500 -49785.023438 1559634.500000 255 255 255
711971.687500 -49887.152344 1562833.875000 255 255 255
714603.500000 -49954.859375 1564954.875000 255 255 255
717769.750000 -50059.527344 1568233.875000 255 255 255
720634.875000 -50142.750000 1570841.125000 255 255 255
723474.750000 -50223.843750 1573381.500000 255 255 255
726594.625000 -50323.945312 1576517.500000 255 255 255
729165.687500 -50385.671875 1578451.125000 255 255 255
732189.312500 -50478.312500 1581353.375000 255 255 255
734870.062500 -50546.941406 1583503.375000 255 255 255
737577.500000 -50617.093750 1585701.000000 255 255 255
740701.375000 -50715.429688 1588781.750000 255 255 255
743400.687500 -50784.320312 1590939.750000 255 255 255
746610.250000 -50887.671875 1594177.625000 255 255 255
749450.250000 -50965.425781 1596613.375000 255 255 255
752301.937500 -51043.625000 1599063.125000 255 255 255
755540.250000 -51147.640625 1602321.750000 255 255 255
758274.937500 -51217.167969 1604499.750000 255 255 255
761551.875000 -51322.933594 1607813.125000 255 255 255
764469.500000 -51404.058594 1610354.625000 255 255 255
767392.187500 -51485.160156 1612895.250000 255 255 255
770687.625000 -51590.855469 1616206.375000 255 255 255
773443.687500 -51660.050781 1618374.125000 255 255 255
776788.375000 -51768.167969 1621761.125000 255 255 255
779797.187500 -51853.472656 1624433.500000 255 255 255
782817.125000 -51939.136719 1627117.250000 255 255 255
786204.562500 -52048.753906 1630551.125000 255 255 255
789012.250000 -52119.589844 1632770.250000 255 255 255
792415.250000 -52229.351562 1636208.875000 255 255 255
795458.812500 -52314.992188 1638891.750000 255 255 255
798517.750000 -52401.269531 1641594.500000 255 255 255
801968.875000 -52512.851562 1645090.125000 255 255 255
804834.687500 -52585.703125 1647372.375000 255 255 255
808367.750000 -52701.738281 1651007.500000 255 255 255
811546.000000 -52794.187500 1653903.625000 255 255 255
814767.937500 -52889.078125 1656876.375000 255 255 255
818411.000000 -53010.832031 1660690.500000 255 255 255
821410.812500 -53090.484375 1663185.875000 255 255 255
825171.437500 -53218.863281 1667207.625000 255 255 255
828560.750000 -53322.796875 1670463.625000 255 255 255
831990.562500 -53428.882812 1673787.125000 255 255 255
835866.187500 -53563.089844 1677991.375000 255 255 255
839006.250000 -53649.687500 1680704.250000 255 255 255
842895.875000 -53783.742188 1684903.875000 255 255 255
846295.000000 -53885.996094 1688107.250000 255 255 255
849769.312500 -53992.597656 1691446.750000 255 255 255
853861.687500 -54137.929688 1695999.625000 255 255 255
857256.062500 -54238.492188 1699149.875000 255 255 255
861561.187500 -54396.132812 1704088.375000 255 255 255
865311.250000 -54518.136719 1707910.500000 255 255 255
869164.000000 -54646.085938 1711918.875000 255 255 255
873725.437500 -54817.964844 1717303.250000 255 255 255
877437.875000 -54935.968750 1721000.125000 255 255 255
882175.375000 -55117.527344 1726687.750000 255 255 255
886240.875000 -55256.433594 1731039.375000 255 255 255
890382.562500 -55399.500000 1735521.250000 255 255 255
895304.437500 -55590.421875 1741502.375000 255 255 255
899243.062500 -55719.628906 1745550.125000 255 255 255
904404.312500 -55923.898438 1751949.375000 255 255 255
908830.687500 -56081.988281 1756901.875000 255 255 255
913434.312500 -56250.335938 1762175.750000 255 255 255
919023.750000 -56478.585938 1769326.125000 255 255 255
923492.812500 -56637.183594 1774294.750000 255 255 254
929554.000000 -56892.582031 1782295.625000 255 255 252
934743.687500 -57093.707031 1788596.375000 255 255 251
940188.562500 -57309.570312 1795358.750000 255 255 251
946872.250000 -57599.917969 1804454.625000 255 255 250
952110.250000 -57801.328125 1810764.250000 255 255 250
959333.375000 -58122.187500 1820816.000000 255 255 250
965501.375000 -58377.960938 1828828.625000 255 255 250
971836.375000 -58642.781250 1837124.750000 255 255 250
979540.750000 -58989.003906 1847971.000000 255 255 251
985358.500000 -59220.457031 1855221.875000 255 255 253
993106.062500 -59566.726562 1866069.500000 255 255 253
999487.750000 -59829.855469 1874312.750000 255 255 254
1005822.250000 -60089.117188 1882434.750000 255 255 255
1013604.562500 -60433.671875 1893228.750000 255 255 255
1019449.250000 -60661.558594 1900367.875000 255 255 255
1027003.750000 -60990.085938 1910659.750000 255 255 255
1033109.875000 -61231.468750 1918221.625000 255 255 255
1039053.812500 -61462.308594 1925453.250000 255 255 255
1046340.687500 -61771.519531 1935140.000000 255 255 255
1051837.875000 -61974.070312 1941485.375000 255 255 255
1058955.250000 -62271.097656 1950790.500000 255 255 255
1064756.750000 -62489.734375 1957639.750000 255 255 255
1070537.500000 -62706.300781 1964424.250000 255 255 255
1077641.750000 -62999.402344 1973606.250000 255 255 255
1083109.500000 -63195.867188 1979761.125000 255 255 255
1090723.625000 -63516.566406 1989807.750000 255 255 255
1097567.000000 -63791.234375 1998412.375000 255 255 255
1104244.500000 -64055.210938 2006682.000000 255 255 255
1111231.875000 -64336.105469 2015481.750000 255 255 255
1115835.250000 -64478.160156 2019932.000000 255 255 255
1123279.250000 -64783.500000 2029497.375000 255 255 255
1128749.500000 -64974.050781 2035466.875000 255 255 255
1137794.750000 -65369.269531 2047848.000000 255 255 255
1151491.000000 -66029.671875 2068536.750000 254 254 254
1163899.000000 -66613.828125 2086836.875000 255 255 255
1200729.125000 -68590.859375 2148772.000000 255 255 251
1245682.625000 -71023.523438 2224981.000000 224 225 218
1301878.875000 -74086.757812 2320944.250000 155 158 146
679039.812500 -52214.281250 1692154.125000 158 147 131
661904.875000 -50762.078125 1645091.250000 223 209 194
646771.062500 -49470.597656 1603237.000000 255 251 241
631706.000000 -48191.156250 1561773.125000 254 255 252
625122.750000 -47563.792969 1541441.500000 255 255 255
622723.187500 -47257.199219 1531505.500000 255 255 255
619492.812500 -46889.324219 1519583.500000 255 255 255
619858.687500 -46794.855469 1516521.875000 255 255 255
619879.187500 -46674.871094 1512633.500000 255 255 255
620318.312500 -46586.949219 1509784.125000 255 255 255
621303.562500 -46540.386719 1508275.125000 255 255 255
622171.000000 -46485.265625 1506488.750000 255 255 255
623572.875000 -46470.257812 1506002.500000 255 255 255
624648.750000 -46431.093750 1504733.125000 255 255 255
625588.437500 -46382.027344 1503143.125000 255 255 255
626627.312500 -46340.550781 1501798.875000 255 255 255
627838.562500 -46312.000000 1500873.625000 255 255 255
629404.875000 -46309.718750 1500799.625000 255 255 255
631123.562500 -46318.632812 1501088.625000 255 255 255
632865.937500 -46329.234375 1501432.125000 255 255 255
634800.375000 -46353.808594 1502228.500000 255 255 253
636910.187500 -46391.035156 1503434.875000 255 255 253
638966.125000 -46424.152344 1504508.250000 255 255 255
641392.750000 -46483.976562 1506447.000000 255 255 255
643771.000000 -46540.003906 1508262.750000 255 255 255
646138.312500 -46594.964844 1510043.875000 255 255 255
648494.000000 -46648.816406 1511789.125000 255 255 255
650451.500000 -46673.824219 1512599.625000 255 255 255
652714.437500 -46720.574219 1514114.625000 255 255 255
654938.312500 -46764.304688 1515531.875000 255 255 255
657159.437500 -46807.628906 1516935.875000 255 255 255
659471.437500 -46857.195312 1518542.250000 255 255 255
661493.062500 -46885.933594 1519473.500000 255 255 255
663630.000000 -46922.687500 1520664.750000 255 255 255
665492.062500 -46939.875000 1521221.750000 255 255 255
667447.812500 -46963.570312 1521989.625000 255 255 255
669835.375000 -47017.464844 1523736.250000 255 255 255
672178.687500 -47067.996094 1525373.875000 255 255 255
674894.687500 -47144.320312 1527847.250000 255 255 255
677314.687500 -47199.648438 1529640.500000 255 255 255
679817.937500 -47260.500000 1531612.500000 255 255 255
682688.937500 -47346.566406 1534401.625000 255 255 255
685225.625000 -47409.089844 1536427.875000 255 255 255
688267.875000 -47506.207031 1539575.375000 255 255 255
691015.125000 -47582.554688 1542049.625000 255 255 255
693776.562500 -47659.515625 1544543.750000 255 255 255
696844.875000 -47757.144531 1547707.625000 255 255 255
699411.125000 -47819.980469 1549744.000000 255 255 255
702468.562500 -47916.027344 1552856.750000 255 255 255
705206.125000 -47989.859375 1555249.375000 255 255 255
707954.375000 -48064.066406 1557654.375000 255 255 255
711055.312500 -48161.820312 1560822.375000 255 255 255
713674.875000 -48226.589844 1562921.375000 255 255 255
716824.875000 -48326.812500 1566169.375000 255 255 255
719677.125000 -48406.546875 1568753.375000 255 255 255
722504.750000 -48484.261719 1571272.000000 255 255 255
725608.250000 -48580.085938 1574377.500000 255 255 255
728167.812500 -48639.132812 1576291.125000 255 255 255
731175.812500 -48727.796875 1579164.375000 255 255 255
733843.750000 -48793.441406 1581291.875000 255 255 255
736540.437500 -48860.695312 1583471.375000 255 255 255
739652.312500 -48955.117188 1586531.375000 255 255 255
742344.687500 -49021.410156 1588679.875000 255 255 255
745546.437500 -49120.960938 1591906.125000 255 255 255
748380.750000 -49195.910156 1594335.000000 255 255 255
751227.875000 -49271.355469 1596780.125000 255 255 255
754460.812500 -49371.710938 1600032.375000 255 255 255
757191.375000 -49438.816406 1602207.125000 255 255 255
760464.500000 -49540.960938 1605517.375000 255 255 255
763380.437500 -49619.429688 1608060.500000 255 255 255
766300.312500 -49697.804688 1610600.375000 255 255 255
769590.500000 -49799.792969 1613905.625000 255 255 255
772339.750000 -49866.402344 1616064.250000 255 255 255
775673.937500 -49970.394531 1619434.375000 255 255 255
778674.000000 -50052.453125 1622093.750000 255 255 255
781684.812500 -50134.835938 1624763.625000 255 255 255
785061.812500 -50240.289062 1628181.125000 255 255 255
787862.687500 -50308.488281 1630391.250000 255 255 255
791255.000000 -50414.074219 1633813.125000 255 255 255
794287.437500 -50496.312500 1636478.375000 255 255 255
797336.375000 -50579.242188 1639165.875000 255 255 255
800777.500000 -50686.632812 1642646.250000 255 255 255
803638.312500 -50756.906250 1644923.625000 255 255 255
807163.187500 -50868.722656 1648547.250000 255 255 255
810333.312500 -50957.742188 1651432.250000 255 255 255
813545.250000 -51049.003906 1654389.875000 255 255 255
817173.812500 -51165.957031 1658180.125000 255 255 255
820161.062500 -51242.335938 1660655.375000 255 255 255
823901.937500 -51365.375000 1664642.875000 255 255 255
827276.375000 -51465.085938 1667874.125000 255 255 255
830686.875000 -51566.609375 1671164.375000 255 255 255
834533.687500 -51694.730469 1675316.375000 255 255 255
837649.375000 -51777.105469 1677986.125000 255 255 255
841504.500000 -51904.742188 1682122.500000 255 255 255
844877.437500 -52002.160156 1685279.625000 255 255 255
848323.875000 -52103.675781 1688569.625000 255 255 255
852380.062500 -52242.136719 1693056.750000 255 255 255
855747.937500 -52337.914062 1696160.750000 255 255 255
860013.812500 -52488.097656 1701027.750000 255 255 255
863732.250000 -52604.304688 1704793.875000 255 255 255
867553.625000 -52726.285156 1708747.000000 255 255 255
872076.937500 -52890.324219 1714063.125000 255 255 255
875766.562500 -53003.222656 1717722.000000 255 255 255
880468.687500 -53176.804688 1723347.375000 255 255 255
884504.625000 -53309.507812 1727648.000000 255 255 255
888617.875000 -53446.316406 1732081.625000 255 255 255
893505.250000 -53629.019531 1738002.625000 255 255 255
897421.375000 -53752.792969 1742013.875000 255 255 255
902551.125000 -53948.597656 1748359.500000 255 255 255
906948.625000 -54099.921875 1753263.625000 255 255 255
911527.500000 -54261.414062 1758497.250000 255 255 255
917094.625000 -54480.957031 1765612.125000 255 255 253
921553.687500 -54633.914062 1770569.125000 255 255 253
927608.375000 -54880.640625 1778565.125000 255 255 252
932794.750000 -55075.101562 1784867.125000 255 255 251
938243.812500 -55284.250000 1791645.250000 255 255 251
944932.000000 -55565.414062 1800757.125000 255 255 250
950172.937500 -55760.507812 1807079.750000 255 255 250
957420.937500 -56072.363281 1817186.250000 255 255 250
963620.500000 -56321.679688 1825266.000000 255 255 250
969993.625000 -56580.113281 1833641.375000 255 255 250
977739.500000 -56917.425781 1844573.000000 255 255 251
983581.000000 -57142.746094 1851875.125000 255 255 253
991364.500000 -57479.765625 1862797.125000 255 255 253
997775.000000 -57735.988281 1871100.875000 255 255 254
