ply
		format ascii 1.0
		element vertex 65037
		property float x
		property float y
		property float z
		property uchar red
		property uchar green
		property uchar blue
		end_header
6917223.500000 -2593228.500000 24614202.000000 255 255 247
6921292.000000 -2584964.250000 24535760.000000 254 254 246
6930504.500000 -2578676.250000 24476076.000000 254 254 246
6932088.500000 -2569607.250000 24389996.000000 254 254 246
6916872.000000 -2554401.750000 24245670.000000 254 254 245
6907395.500000 -2541421.250000 24122462.000000 254 254 245
6884813.000000 -2523732.500000 23954566.000000 254 254 245
6881680.500000 -2513278.000000 23855334.000000 254 254 244
6872341.000000 -2500641.500000 23735392.000000 254 254 245
6836983.500000 -2478665.250000 23526800.000000 254 254 246
6811588.500000 -2460447.750000 23353884.000000 254 254 246
6763168.000000 -2434076.000000 23103570.000000 254 254 245
6732206.500000 -2414155.750000 22914494.000000 254 254 247
6704558.500000 -2395563.500000 22738022.000000 255 253 249
6667954.500000 -2373916.500000 22532554.000000 255 253 249
6656876.500000 -2361479.750000 22414508.000000 254 253 248
6626798.000000 -2342415.750000 22233556.000000 254 254 247
6610338.500000 -2328284.000000 22099422.000000 253 253 245
6591445.500000 -2313398.500000 21958134.000000 253 253 246
6554706.000000 -2292376.500000 21758600.000000 255 255 247
6534744.000000 -2277349.750000 21615968.000000 255 255 247
6494561.000000 -2255406.000000 21407686.000000 255 255 247
6468041.500000 -2238344.250000 21245740.000000 255 255 247
6446170.500000 -2223004.250000 21100138.000000 254 254 246
6419942.500000 -2206273.500000 20941334.000000 254 254 247
6417041.500000 -2197647.500000 20859456.000000 255 254 248
6394284.500000 -2182304.000000 20713822.000000 254 254 246
6374336.500000 -2168021.500000 20578256.000000 254 254 246
6357258.500000 -2154809.500000 20452852.000000 255 255 247
6340351.500000 -2141745.750000 20328854.000000 255 255 247
6344074.500000 -2135715.500000 20271618.000000 255 255 247
6336169.000000 -2125825.000000 20177738.000000 255 255 247
6335763.000000 -2118508.500000 20108294.000000 254 254 246
6331391.500000 -2109920.250000 20026776.000000 254 254 246
6312003.500000 -2096402.000000 19898464.000000 255 254 247
6301003.500000 -2085750.875000 19797366.000000 253 255 245
6274479.000000 -2070048.750000 19648326.000000 253 255 243
6260273.500000 -2058501.750000 19538726.000000 253 254 245
6245401.500000 -2046812.750000 19427776.000000 253 254 249
6219827.000000 -2031705.000000 19284378.000000 254 255 250
6209849.000000 -2021774.375000 19190118.000000 254 254 252
6179796.500000 -2005394.625000 19034646.000000 254 254 253
6157343.000000 -1991579.750000 18903520.000000 254 254 253
6135489.000000 -1978048.000000 18775080.000000 254 254 253
6106981.500000 -1962466.250000 18627182.000000 254 254 253
6098238.000000 -1953315.625000 18540328.000000 254 254 253
6078292.000000 -1940647.625000 18420088.000000 254 254 252
6072699.500000 -1932628.875000 18343974.000000 254 255 250
6064623.500000 -1923873.875000 18260874.000000 254 255 250
6038283.000000 -1909399.125000 18123484.000000 254 255 250
6021346.500000 -1897980.750000 18015104.000000 254 255 250
5987246.500000 -1881242.000000 17856224.000000 254 255 251
5967874.000000 -1869222.000000 17742134.000000 255 255 251
5946927.500000 -1856786.500000 17624100.000000 255 255 251
5910480.500000 -1839604.625000 17461014.000000 254 254 253
5890248.000000 -1827561.375000 17346704.000000 254 254 252
5856140.000000 -1811301.625000 17192370.000000 254 254 252
5837484.500000 -1799907.875000 17084224.000000 254 254 252
5822773.000000 -1789797.125000 16988256.000000 254 254 252
5799249.000000 -1777048.500000 16867250.000000 254 254 252
5792104.500000 -1769382.125000 16794482.000000 254 254 252
5774442.000000 -1758559.875000 16691760.000000 254 254 252
5768054.500000 -1751227.250000 16622161.000000 253 253 251
5760827.500000 -1743685.250000 16550575.000000 254 254 252
5740956.000000 -1732373.625000 16443208.000000 254 254 252
5730859.000000 -1724071.500000 16364407.000000 254 255 251
5706491.000000 -1711539.250000 16245454.000000 254 255 250
5689928.000000 -1701416.625000 16149373.000000 253 254 249
5676441.500000 -1692272.250000 16062576.000000 253 254 248
5660428.500000 -1682431.625000 15969173.000000 253 254 248
5660492.500000 -1677414.125000 15921548.000000 253 254 248
5653216.500000 -1670258.125000 15853625.000000 253 254 248
5654435.000000 -1665647.000000 15809857.000000 253 253 249
5653685.000000 -1660485.000000 15760860.000000 253 253 251
5641149.000000 -1651902.125000 15679395.000000 254 254 252
5634460.500000 -1645077.250000 15614615.000000 254 254 252
5612943.000000 -1633975.750000 15509243.000000 254 254 252
5599140.000000 -1625178.375000 15425740.000000 254 254 252
5583089.000000 -1615781.875000 15336552.000000 255 255 252
5557455.000000 -1603675.000000 15221636.000000 254 254 252
5545248.500000 -1595501.875000 15144059.000000 254 254 254
5519193.500000 -1583403.125000 15029221.000000 254 254 254
5497891.000000 -1572733.625000 14927950.000000 254 254 254
5486056.500000 -1564826.250000 14852895.000000 254 254 254
5486815.000000 -1560546.250000 14812270.000000 254 254 254
5508373.500000 -1562189.375000 14827867.000000 254 254 254
5512181.000000 -1558803.625000 14795729.000000 254 254 254
5504102.000000 -1552085.125000 14731959.000000 254 254 254
5489697.000000 -1543626.000000 14651668.000000 254 254 254
5473833.000000 -1534805.750000 14567949.000000 254 254 254
5469912.000000 -1529374.500000 14516396.000000 254 254 254
5458304.500000 -1521830.750000 14444793.000000 254 254 254
5455117.500000 -1516670.500000 14395814.000000 255 255 253
5452238.000000 -1511624.625000 14347920.000000 255 255 251
5442087.500000 -1504596.500000 14281211.000000 254 254 252
5439930.000000 -1499811.250000 14235791.000000 254 254 252
5424620.500000 -1491436.625000 14156301.000000 254 254 253
5413386.000000 -1484225.625000 14087856.000000 254 254 255
5400920.500000 -1476717.875000 14016594.000000 254 254 254
5383174.000000 -1467811.500000 13932057.000000 254 254 254
5377629.000000 -1462272.000000 13879478.000000 254 254 254
5361000.000000 -1453757.000000 13798656.000000 254 254 254
5353674.500000 -1447804.625000 13742158.000000 254 254 254
5342618.500000 -1440878.375000 13676417.000000 254 254 254
5317873.000000 -1430308.125000 13576086.000000 254 254 252
5301980.000000 -1422169.500000 13498836.000000 254 255 250
5266846.000000 -1408927.625000 13373148.000000 255 254 249
5241449.500000 -1398355.125000 13272797.000000 255 254 249
5213823.000000 -1387246.125000 13167353.000000 255 254 249
5175717.000000 -1373415.750000 13036080.000000 254 254 246
5155538.000000 -1364403.750000 12950540.000000 254 254 246
5116088.500000 -1350353.375000 12817178.000000 254 254 246
5090677.500000 -1340073.375000 12719603.000000 253 254 246
5060739.000000 -1328659.250000 12611264.000000 254 254 245
5012266.000000 -1312452.250000 12457432.000000 254 254 244
4980335.500000 -1300651.000000 12345416.000000 254 254 244
4923449.500000 -1282411.625000 12172294.000000 254 254 246
4887911.000000 -1269813.875000 12052719.000000 254 254 245
4842577.000000 -1254743.875000 11909679.000000 254 254 243
4767204.000000 -1231989.625000 11693702.000000 254 255 242
4711863.000000 -1214517.250000 11527859.000000 254 255 241
4618583.000000 -1187382.000000 11270299.000000 255 254 242
4547915.000000 -1166185.500000 11069107.000000 255 253 239
4477914.000000 -1145269.000000 10870574.000000 255 254 237
4402419.500000 -1123059.000000 10659764.000000 255 255 237
4366904.000000 -1111135.625000 10546590.000000 255 255 236
4268537.000000 -1083322.250000 10282593.000000 255 255 232
4311513.000000 -1091431.125000 10359560.000000 255 255 232
4120287.500000 -1040363.312500 9874839.000000 254 253 236
3678052.250000 -926337.125000 8792534.000000 255 255 246
3296904.500000 -828235.875000 7861384.000000 254 251 240
2507731.250000 -628388.062500 5964484.000000 215 195 175
7492639.000000 -3276977.750000 31421570.000000 254 254 254
7472896.000000 -3253820.750000 31199526.000000 254 254 254
7402098.000000 -3208736.500000 30767234.000000 254 254 254
7317626.000000 -3158148.250000 30282164.000000 254 254 254
7264681.500000 -3121550.500000 29931242.000000 254 254 254
7268749.500000 -3109663.000000 29817260.000000 254 254 254
7234340.000000 -3081489.250000 29547112.000000 254 254 254
7195256.000000 -3051577.000000 29260296.000000 255 254 252
7155549.000000 -3021659.250000 28973428.000000 255 255 253
7113029.500000 -2990815.750000 28677682.000000 255 254 250
7104583.500000 -2974501.500000 28521252.000000 254 253 249
7077977.500000 -2950755.250000 28293560.000000 254 253 248
7074465.500000 -2936797.250000 28159720.000000 255 254 249
7059218.000000 -2918105.750000 27980496.000000 254 254 247
7001699.000000 -2882170.500000 27635928.000000 254 254 246
6954353.500000 -2850706.500000 27334232.000000 254 254 246
6878707.000000 -2807951.750000 26924276.000000 254 254 245
6827254.500000 -2775387.000000 26612026.000000 254 254 245
6791571.000000 -2749475.250000 26363568.000000 254 254 244
6761694.000000 -2726117.750000 26139604.000000 254 254 244
6771155.000000 -2718746.250000 26068922.000000 254 254 244
6763499.000000 -2704590.500000 25933188.000000 253 253 243
6754983.000000 -2690207.250000 25795274.000000 254 254 244
6751236.000000 -2677832.000000 25676612.000000 254 254 244
6753336.000000 -2667866.500000 25581056.000000 254 254 244
6774675.500000 -2665550.750000 25558852.000000 254 254 244
6773332.000000 -2654364.500000 25451592.000000 254 254 244
6761888.500000 -2639325.000000 25307386.000000 254 254 244
6748744.000000 -2623743.750000 25157982.000000 254 254 245
6740728.000000 -2610271.250000 25028800.000000 255 255 247
6752931.000000 -2604703.750000 24975416.000000 255 255 246
6755481.000000 -2595471.500000 24886890.000000 254 254 246
6759219.000000 -2586765.750000 24803416.000000 254 254 245
6767215.000000 -2579750.750000 24736152.000000 254 254 244
6778998.500000 -2574228.500000 24683202.000000 254 254 244
6802791.000000 -2573291.500000 24674218.000000 254 254 244
6818334.500000 -2569253.750000 24635500.000000 254 254 244
6831587.000000 -2564386.500000 24588832.000000 254 254 244
6842340.500000 -2558622.000000 24533558.000000 254 254 244
6850780.500000 -2552039.750000 24470442.000000 254 254 245
6865602.500000 -2547875.500000 24430512.000000 254 254 246
6869333.000000 -2539642.250000 24351568.000000 254 254 246
6877938.000000 -2533266.000000 24290428.000000 254 254 246
6879117.500000 -2524213.000000 24203622.000000 254 254 246
6863989.500000 -2509265.750000 24060302.000000 254 254 244
6854871.000000 -2496618.750000 23939034.000000 254 254 244
6833024.000000 -2479446.500000 23774376.000000 254 254 244
6830414.000000 -2469355.750000 23677620.000000 254 254 244
6821755.500000 -2457160.250000 23560682.000000 254 254 245
6787377.500000 -2435824.250000 23356100.000000 254 254 246
6762641.000000 -2418091.250000 23186066.000000 253 253 245
6715463.000000 -2392492.000000 22940606.000000 253 253 245
6685515.000000 -2373194.500000 22755570.000000 254 254 246
6658898.000000 -2355214.500000 22583166.000000 254 253 247
6623546.500000 -2334285.750000 22382490.000000 254 253 247
6613169.500000 -2322276.750000 22267340.000000 254 254 247
6584041.500000 -2303792.500000 22090104.000000 254 254 246
6568128.500000 -2290047.500000 21958308.000000 254 254 246
6549681.500000 -2275519.250000 21819004.000000 254 254 245
6513555.000000 -2254973.500000 21621998.000000 255 255 245
6493907.000000 -2240256.750000 21480886.000000 255 255 247
6454231.000000 -2218758.500000 21274748.000000 255 255 247
6428043.000000 -2202031.000000 21114354.000000 254 254 246
6406427.000000 -2186981.000000 20970046.000000 254 254 246
6380416.500000 -2170540.250000 20812402.000000 253 253 245
6377490.000000 -2162039.250000 20730890.000000 254 254 246
6355247.500000 -2147070.750000 20587364.000000 254 254 246
6336173.500000 -2133272.000000 20455054.000000 254 254 246
6319888.500000 -2120503.750000 20332624.000000 254 254 246
6303361.500000 -2107741.750000 20210254.000000 255 255 247
6306937.000000 -2101765.250000 20152948.000000 255 255 247
6298558.000000 -2091859.250000 20057964.000000 254 254 246
6297488.500000 -2084439.375000 19986818.000000 254 254 246
6292432.000000 -2075754.500000 19903542.000000 254 254 246
6272668.000000 -2062292.250000 19774458.000000 254 254 246
6261613.000000 -2051773.875000 19673602.000000 254 254 245
6235053.000000 -2036262.000000 19524866.000000 254 255 244
6220796.000000 -2024857.500000 19415512.000000 254 255 246
6205897.500000 -2013320.625000 19304890.000000 253 254 248
6180245.500000 -1998382.750000 19161656.000000 253 254 249
6170135.000000 -1988551.750000 19067392.000000 253 253 251
6140280.000000 -1972442.875000 18912930.000000 254 254 252
6118355.500000 -1958978.375000 18783824.000000 254 254 252
6096892.500000 -1945748.875000 18656972.000000 254 254 252
6068274.000000 -1930329.125000 18509120.000000 254 254 252
6059038.000000 -1921154.750000 18421150.000000 254 254 252
6038380.000000 -1908429.625000 18299134.000000 254 255 251
6032121.500000 -1900322.750000 18221402.000000 254 255 250
6023456.500000 -1891512.000000 18136918.000000 254 255 250
5996699.000000 -1877094.250000 17998672.000000 254 255 250
5979626.500000 -1865790.375000 17890284.000000 254 255 250
5945181.000000 -1849154.500000 17730770.000000 254 255 250
5925254.500000 -1837125.625000 17615430.000000 254 255 250
5903878.500000 -1824724.625000 17496522.000000 254 255 250
5867345.000000 -1807731.500000 17333582.000000 254 254 251
5847272.000000 -1795900.500000 17220140.000000 254 254 251
5813411.000000 -1779922.000000 17066928.000000 254 254 251
5794854.000000 -1768714.000000 16959460.000000 254 255 250
5780267.500000 -1758783.875000 16864244.000000 254 254 251
5756893.500000 -1746249.500000 16744057.000000 254 254 252
5749789.000000 -1738712.500000 16671787.000000 254 254 252
5732523.500000 -1728158.500000 16570590.000000 254 254 252
5726568.500000 -1721068.625000 16502608.000000 253 253 251
5719948.000000 -1713822.750000 16433130.000000 254 255 251
5700981.000000 -1702932.875000 16328712.000000 255 255 250
5691561.500000 -1694952.625000 16252192.000000 254 255 249
5667812.000000 -1682766.000000 16135340.000000 253 254 249
5651514.500000 -1672859.000000 16040346.000000 253 254 249
5637876.000000 -1663796.250000 15953447.000000 252 253 248
5621283.500000 -1653918.875000 15858737.000000 252 253 247
5620501.500000 -1648738.500000 15809064.000000 252 253 247
5612693.500000 -1641534.000000 15739983.000000 252 253 247
5613133.500000 -1636777.625000 15694377.000000 252 253 248
5613133.500000 -1631921.500000 15647814.000000 253 254 249
5603443.000000 -1624285.250000 15574592.000000 253 253 250
5600133.500000 -1618538.250000 15519486.000000 254 254 252
5586287.000000 -1609788.375000 15435588.000000 254 254 252
5581452.000000 -1603679.250000 15377010.000000 255 255 253
5573066.000000 -1596588.375000 15309019.000000 255 255 253
5551233.500000 -1585698.125000 15204596.000000 254 254 252
5537750.000000 -1577248.750000 15123580.000000 254 254 254
5511188.500000 -1565134.625000 15007421.000000 254 254 254
5491239.500000 -1554962.875000 14909890.000000 254 254 254
5479776.500000 -1547245.875000 14835894.000000 254 254 254
5478046.000000 -1542313.250000 14788597.000000 254 254 254
5495843.000000 -1542891.000000 14794136.000000 254 254 254
5497562.500000 -1538964.750000 14756490.000000 254 254 254
5491143.500000 -1532789.250000 14697275.000000 254 254 254
5478442.500000 -1524900.125000 14621630.000000 254 254 254
5461344.500000 -1515835.250000 14534711.000000 254 254 254
5454850.000000 -1509756.500000 14476425.000000 254 254 254
5438384.000000 -1500959.875000 14392077.000000 254 254 252
5429895.500000 -1494408.125000 14329255.000000 255 255 251
5422653.000000 -1488235.000000 14270064.000000 255 255 251
5410519.500000 -1480757.875000 14198369.000000 254 254 252
5409367.000000 -1476319.375000 14155810.000000 254 254 252
5394755.500000 -1468242.375000 14078363.000000 254 254 253
5383577.000000 -1461142.125000 14010281.000000 254 254 254
5370809.500000 -1453650.750000 13938449.000000 254 254 254
5352376.000000 -1444671.500000 13852351.000000 254 254 254
5346042.000000 -1438998.250000 13797952.000000 254 254 255
5327988.500000 -1430210.250000 13713688.000000 254 254 255
5319362.000000 -1423993.875000 13654082.000000 255 255 255
5306884.500000 -1416783.250000 13584943.000000 255 255 255
5280538.500000 -1405919.375000 13480773.000000 254 254 252
5263628.500000 -1397619.875000 13401193.000000 254 255 250
5226964.000000 -1384134.125000 13271884.000000 255 255 249
5200252.500000 -1373349.500000 13168475.000000 255 254 249
5171488.500000 -1362082.375000 13060439.000000 255 254 248
5132264.500000 -1348128.000000 12926636.000000 254 254 246
5111539.000000 -1339094.375000 12840017.000000 254 254 246
5071499.500000 -1325062.625000 12705472.000000 253 253 246
5045634.500000 -1314799.125000 12607059.000000 252 253 247
5015459.500000 -1303469.875000 12498428.000000 253 253 246
4966888.000000 -1287432.250000 12344650.000000 254 254 246
4935019.500000 -1275797.250000 12233086.000000 254 254 244
4878420.500000 -1257846.875000 12060969.000000 253 253 243
4842824.500000 -1245392.000000 11941543.000000 253 253 243
4798017.000000 -1230639.750000 11800090.000000 253 254 242
4724178.500000 -1208537.750000 11588163.000000 254 255 240
4670428.000000 -1191676.250000 11426486.000000 254 254 240
4579695.000000 -1165490.750000 11175404.000000 255 254 240
4511121.500000 -1145065.625000 10979556.000000 255 253 239
4442997.500000 -1124860.000000 10785812.000000 255 253 238
4368672.500000 -1103192.375000 10578051.000000 255 255 237
4333138.500000 -1091406.750000 10465043.000000 255 255 236
4237311.500000 -1064534.125000 10207373.000000 253 255 232
4276818.500000 -1071711.875000 10276198.000000 254 255 232
4093935.750000 -1023267.312500 9811682.000000 254 254 236
3676320.750000 -916547.875000 8788394.000000 255 255 245
3314290.250000 -824192.750000 7902840.000000 255 253 242
2525958.750000 -626561.625000 6007837.500000 224 206 186
7424285.500000 -3213947.000000 31134918.000000 254 254 254
7408247.000000 -3192754.000000 30929614.000000 254 254 254
7349022.500000 -3153219.250000 30546622.000000 254 254 254
7269957.000000 -3105557.000000 30084896.000000 254 254 254
7201497.500000 -3062823.500000 29670920.000000 254 254 254
7180495.500000 -3040558.750000 29455230.000000 254 254 254
7141517.500000 -3010908.750000 29167998.000000 254 254 254
7125477.000000 -2991144.500000 28976532.000000 255 254 252
7113160.000000 -2973106.500000 28801792.000000 254 254 252
7080202.000000 -2946633.000000 28545330.000000 255 254 250
7066442.500000 -2928341.750000 28368136.000000 254 253 249
7036373.500000 -2903476.250000 28127252.000000 254 253 248
7033093.500000 -2889828.500000 27995040.000000 255 254 249
7019005.000000 -2871873.750000 27821104.000000 254 254 247
6963001.500000 -2836992.000000 27483188.000000 254 254 246
6916962.000000 -2806444.750000 27187264.000000 254 254 246
6843320.000000 -2764999.500000 26785766.000000 254 254 247
6793463.000000 -2733468.250000 26480310.000000 254 254 245
6759195.000000 -2708444.250000 26237892.000000 254 254 244
6730704.500000 -2685931.500000 26019802.000000 254 254 244
6740697.000000 -2678897.500000 25951660.000000 254 254 244
6734246.000000 -2665412.500000 25821024.000000 254 254 244
6727394.500000 -2651879.250000 25689920.000000 253 253 243
6724487.000000 -2640003.750000 25574880.000000 254 254 244
6725603.000000 -2629797.500000 25476006.000000 254 254 244
6744741.000000 -2626691.500000 25445918.000000 254 254 244
6741687.500000 -2615003.000000 25332684.000000 254 254 244
6729869.500000 -2600021.000000 25187548.000000 254 254 244
6717029.500000 -2584765.000000 25039756.000000 254 254 245
6709286.000000 -2571583.000000 24912056.000000 255 255 247
6721815.500000 -2566244.250000 24860338.000000 255 255 246
6725173.500000 -2557460.000000 24775240.000000 254 254 244
6729864.500000 -2549249.000000 24695696.000000 254 254 244
6738585.000000 -2542622.250000 24631502.000000 254 254 244
6750532.500000 -2537260.000000 24579554.000000 254 254 244
6773861.500000 -2536200.500000 24569290.000000 254 254 244
6788861.500000 -2532042.500000 24529010.000000 254 254 244
6801705.000000 -2527115.000000 24481276.000000 254 254 244
6812137.000000 -2521333.000000 24425262.000000 254 254 244
6820397.000000 -2514793.750000 24361914.000000 254 254 245
6835223.000000 -2510716.000000 24322410.000000 254 254 246
6838895.000000 -2502587.250000 24243664.000000 254 254 246
6847251.000000 -2496227.250000 24182052.000000 254 254 246
6848302.500000 -2487262.250000 24095202.000000 254 254 246
6833337.500000 -2472568.500000 23952858.000000 254 254 244
6824485.500000 -2460187.500000 23832918.000000 254 254 244
6803176.000000 -2443424.000000 23670524.000000 254 254 244
6800950.500000 -2433613.250000 23575482.000000 254 254 244
6792780.500000 -2421755.250000 23460610.000000 254 254 244
6759069.500000 -2400911.750000 23258688.000000 254 254 244
6734784.500000 -2383556.250000 23090558.000000 254 254 244
6688368.500000 -2358523.000000 22848048.000000 254 254 244
6659044.000000 -2339676.000000 22665470.000000 254 254 244
6633012.500000 -2322118.000000 22495380.000000 254 254 246
6598352.000000 -2301676.250000 22297350.000000 254 255 246
6588343.000000 -2289949.250000 22183746.000000 254 254 246
6559682.000000 -2271846.500000 22008376.000000 254 254 246
6544018.500000 -2258357.750000 21877704.000000 254 254 245
6525797.000000 -2244084.750000 21739438.000000 254 254 244
6490145.000000 -2223940.250000 21544288.000000 254 254 245
6470853.500000 -2209523.750000 21404630.000000 254 254 246
6431669.500000 -2188439.750000 21200380.000000 254 254 246
6405800.500000 -2172018.000000 21041294.000000 253 253 245
6384427.000000 -2157229.750000 20898032.000000 253 253 245
6358642.500000 -2141058.750000 20741378.000000 253 253 245
6355743.000000 -2132678.750000 20660198.000000 254 254 246
6333882.500000 -2118016.000000 20518154.000000 254 254 246
6315407.500000 -2104582.500000 20388016.000000 254 254 246
6299581.500000 -2092120.375000 20267290.000000 254 254 246
6283122.500000 -2079534.000000 20145362.000000 254 254 246
6286373.000000 -2073534.375000 20087240.000000 254 254 246
6277341.500000 -2063537.875000 19990400.000000 254 254 246
6275611.500000 -2056001.000000 19917386.000000 254 254 246
6269829.000000 -2047191.750000 19832048.000000 254 254 246
6249390.500000 -2033672.250000 19701078.000000 254 254 246
6237974.000000 -2023169.125000 19599330.000000 254 255 246
6210944.500000 -2007689.250000 19449370.000000 254 255 244
6196332.000000 -1996312.625000 19339158.000000 253 255 245
6181105.500000 -1984814.125000 19227768.000000 253 254 247
6155002.000000 -1969910.500000 19083390.000000 253 254 248
6144540.000000 -1960094.375000 18988298.000000 253 254 249
6114505.500000 -1944119.625000 18833542.000000 254 254 251
6092724.000000 -1930864.500000 18705134.000000 254 254 252
6071377.500000 -1917833.250000 18578894.000000 254 254 251
6042537.500000 -1902527.375000 18430620.000000 254 254 252
6032911.000000 -1893350.250000 18341718.000000 254 255 251
6011699.000000 -1880608.125000 18218278.000000 255 255 250
6004946.500000 -1872456.625000 18139312.000000 255 255 250
5995858.500000 -1863631.625000 18053820.000000 254 255 249
5968817.000000 -1849300.500000 17914988.000000 254 255 250
5951701.000000 -1838125.875000 17806734.000000 254 255 250
5917062.500000 -1821627.875000 17646910.000000 254 255 251
5896776.000000 -1809638.625000 17530766.000000 254 254 252
5875130.500000 -1797309.250000 17411326.000000 254 254 252
5838634.500000 -1780528.625000 17248764.000000 254 255 251
5818794.500000 -1768916.625000 17136274.000000 254 255 250
5785167.500000 -1753199.125000 16984012.000000 254 255 250
5766661.500000 -1742147.625000 16876950.000000 254 255 249
5752102.000000 -1732353.250000 16782068.000000 254 255 250
5728848.500000 -1720009.375000 16662488.000000 254 254 252
5721804.000000 -1712593.125000 16590643.000000 254 254 252
5704806.000000 -1702252.500000 16490469.000000 254 254 252
5699105.500000 -1695336.000000 16423466.000000 254 254 252
5692819.000000 -1688288.125000 16355190.000000 254 255 251
5674424.500000 -1677703.250000 16252650.000000 254 255 250
5665452.000000 -1669960.000000 16177637.000000 254 254 251
5641957.500000 -1657996.000000 16061737.000000 253 253 249
5625748.000000 -1648238.875000 15967215.000000 253 254 249
5611669.500000 -1639162.750000 15879291.000000 253 254 248
5593850.000000 -1629051.750000 15781341.000000 253 254 249
5591627.000000 -1623529.625000 15727846.000000 253 254 249
5582705.000000 -1616101.500000 15655886.000000 253 254 249
5581989.500000 -1611086.000000 15607299.000000 253 254 249
5582779.500000 -1606533.375000 15563196.000000 253 254 249
5576271.500000 -1599914.000000 15499070.000000 253 254 249
5576909.500000 -1595377.625000 15455126.000000 254 254 252
5572356.500000 -1589387.500000 15397096.000000 254 254 252
5578770.000000 -1586551.375000 15369621.000000 254 254 252
5580021.000000 -1582267.750000 15328124.000000 254 254 252
5562865.500000 -1572805.000000 15236455.000000 254 254 252
5547649.000000 -1563944.000000 15150614.000000 254 254 254
5519084.000000 -1551382.125000 15028922.000000 254 254 254
5500286.500000 -1541630.625000 14934454.000000 254 254 254
5486246.500000 -1533264.750000 14853411.000000 254 254 254
5473278.000000 -1525245.500000 14775725.000000 254 254 254
5477615.500000 -1522081.250000 14745070.000000 254 254 254
5468067.000000 -1515087.500000 14677319.000000 254 254 254
5458824.000000 -1508217.875000 14610770.000000 254 254 254
5447364.500000 -1500776.750000 14538685.000000 254 254 254
5430468.000000 -1491884.000000 14452537.000000 254 254 254
5425046.500000 -1486185.250000 14397330.000000 254 254 253
5410582.500000 -1478048.125000 14318503.000000 254 254 251
5404152.500000 -1472145.375000 14261320.000000 255 255 251
5398668.000000 -1466532.500000 14206946.000000 255 255 251
5387473.000000 -1459404.250000 14137891.000000 254 254 252
5386080.000000 -1454963.375000 14094870.000000 254 254 252
5371306.500000 -1446942.750000 14017171.000000 254 254 253
5360236.000000 -1439961.125000 13949537.000000 254 254 254
5347382.500000 -1432540.625000 13877652.000000 254 254 254
5328579.500000 -1423571.500000 13790764.000000 254 254 255
5321743.500000 -1417839.875000 13735239.000000 254 254 255
5302846.000000 -1408935.125000 13648974.000000 254 254 255
5293499.000000 -1402609.500000 13587695.000000 255 255 255
5280208.000000 -1395276.125000 13516654.000000 254 254 255
5252880.000000 -1384283.500000 13410163.000000 253 253 252
5235298.500000 -1375911.875000 13329064.000000 253 254 249
5197686.000000 -1362335.500000 13197544.000000 254 254 248
5170202.000000 -1351479.625000 13092378.000000 254 253 248
5140801.500000 -1340182.750000 12982939.000000 254 253 248
5101014.000000 -1326245.750000 12847926.000000 254 254 246
5080061.500000 -1317267.125000 12760946.000000 254 254 246
5039693.500000 -1303315.250000 12625789.000000 254 254 247
5013459.500000 -1293083.250000 12526666.000000 253 253 248
4983067.000000 -1281835.750000 12417707.000000 253 253 247
4934486.500000 -1265981.500000 12264120.000000 253 253 245
4902767.500000 -1254525.375000 12153139.000000 253 253 243
4846477.500000 -1236858.750000 11981995.000000 254 254 244
4810924.000000 -1224563.125000 11862882.000000 254 254 243
4766510.000000 -1210082.500000 11722602.000000 254 254 241
4693732.000000 -1188495.500000 11513479.000000 255 254 239
4641045.500000 -1172094.875000 11354599.000000 255 253 237
4552008.000000 -1146623.000000 11107841.000000 255 254 239
4484759.500000 -1126757.250000 10915394.000000 255 254 238
4417902.000000 -1107092.250000 10724889.000000 255 254 236
4344624.000000 -1085923.750000 10519821.000000 255 255 237
4309411.000000 -1074353.875000 10407738.000000 255 255 236
4215381.500000 -1048217.687500 10154546.000000 253 255 232
4252859.000000 -1054832.625000 10218628.000000 253 255 232
4074967.250000 -1008132.437500 9766222.000000 253 253 235
3671880.000000 -906098.937500 8777779.000000 255 255 244
3321322.000000 -817512.875000 7919607.000000 255 254 241
2535268.000000 -622453.250000 6029979.000000 224 208 186
7334124.500000 -3142183.250000 30756814.000000 254 254 254
7321275.500000 -3122741.000000 30566506.000000 254 254 254
7271354.500000 -3087728.500000 30223790.000000 254 254 254
7197779.000000 -3043024.000000 29786206.000000 254 254 254
7120700.000000 -2997236.500000 29338024.000000 254 254 254
7083994.000000 -2968768.750000 29059372.000000 254 254 254
7042155.000000 -2938406.500000 28762174.000000 254 254 254
7040133.500000 -2924849.500000 28629474.000000 254 254 252
7045102.500000 -2914301.000000 28526220.000000 254 254 252
7019318.000000 -2891176.000000 28299864.000000 255 254 252
7003557.500000 -2872359.750000 28115684.000000 254 253 249
6972674.000000 -2847527.500000 27872618.000000 254 253 249
6969953.000000 -2834358.250000 27743712.000000 254 253 248
6956988.500000 -2817151.750000 27575290.000000 254 253 248
6903052.000000 -2783568.750000 27246566.000000 254 253 247
6858757.500000 -2754138.250000 26958490.000000 254 254 246
6787876.000000 -2714321.500000 26568750.000000 254 254 246
6740247.500000 -2684094.750000 26272880.000000 254 254 245
6707922.500000 -2660186.750000 26038860.000000 254 254 244
6681414.000000 -2638773.000000 25829254.000000 255 255 245
6692252.000000 -2632223.750000 25765146.000000 254 254 244
6686943.000000 -2619402.750000 25639652.000000 254 254 244
6681165.500000 -2606503.250000 25513386.000000 254 254 244
6678559.000000 -2594940.250000 25400204.000000 254 254 244
6678839.000000 -2584587.500000 25298868.000000 254 254 244
6696341.000000 -2580955.750000 25263318.000000 254 254 244
6691994.500000 -2568966.000000 25145956.000000 254 254 244
6679767.000000 -2554058.000000 25000034.000000 254 254 244
6667127.500000 -2539111.500000 24853732.000000 253 253 244
6659813.500000 -2526303.250000 24728360.000000 253 253 246
6672881.500000 -2521297.250000 24679358.000000 253 253 245
6677292.500000 -2513072.000000 24598848.000000 254 254 244
6683143.000000 -2505451.000000 24524250.000000 254 254 244
6692634.500000 -2499248.750000 24463540.000000 254 254 244
6704610.000000 -2494018.500000 24412344.000000 254 254 244
6727159.500000 -2492746.750000 24399896.000000 254 254 244
6741315.000000 -2488386.500000 24357218.000000 254 254 244
6753552.500000 -2483354.500000 24307962.000000 254 254 243
6763512.500000 -2477526.500000 24250916.000000 254 254 242
6771497.000000 -2471022.000000 24187248.000000 254 254 243
6786269.000000 -2467034.250000 24148212.000000 254 254 244
6789816.000000 -2459011.250000 24069680.000000 254 254 244
6797810.000000 -2452653.000000 24007446.000000 254 254 244
6798703.000000 -2443790.000000 23920692.000000 255 255 245
6784118.000000 -2429450.500000 23780330.000000 254 254 244
6775799.500000 -2417453.000000 23662894.000000 255 255 245
6755436.000000 -2401263.000000 23504420.000000 254 254 244
6753828.500000 -2391835.000000 23412136.000000 254 254 244
6746455.500000 -2380441.750000 23300614.000000 254 254 244
6714029.000000 -2360324.250000 23103698.000000 254 254 244
6690703.000000 -2343541.500000 22939422.000000 254 254 244
6645800.000000 -2319350.250000 22702630.000000 254 254 244
6617608.500000 -2301145.500000 22524436.000000 254 254 244
6592657.500000 -2284195.000000 22358518.000000 254 254 246
6559330.000000 -2264474.500000 22165486.000000 255 255 246
6550094.500000 -2253182.750000 22054958.000000 255 255 246
6522450.000000 -2235662.000000 21883458.000000 254 254 245
6507419.000000 -2222573.750000 21755346.000000 254 254 244
6489692.500000 -2208660.750000 21619162.000000 255 255 244
6454763.500000 -2189012.500000 21426838.000000 255 255 245
6435876.000000 -2174923.500000 21288928.000000 255 255 245
6397244.500000 -2154284.500000 21086906.000000 255 255 245
6371765.000000 -2138203.000000 20929496.000000 255 255 247
6350607.500000 -2123679.250000 20787332.000000 254 254 246
6324885.500000 -2107735.250000 20631266.000000 254 254 246
6321778.000000 -2099411.250000 20549790.000000 255 255 247
6300100.000000 -2084999.125000 20408718.000000 254 254 246
6282243.500000 -2071946.375000 20280952.000000 254 254 246
6266858.000000 -2059795.125000 20162012.000000 254 254 246
6250226.500000 -2047318.875000 20039888.000000 254 254 246
6252851.500000 -2041213.250000 19980126.000000 254 254 246
6242811.500000 -2031028.875000 19880436.000000 254 254 246
6240104.000000 -2023290.750000 19804692.000000 254 254 246
6233378.500000 -2014306.375000 19716752.000000 254 254 246
6212070.500000 -2000685.625000 19583426.000000 254 254 245
6200228.500000 -1990194.500000 19480736.000000 254 254 245
6172670.000000 -1974745.500000 19329514.000000 254 255 245
6157601.500000 -1963381.375000 19218280.000000 253 255 244
6142021.500000 -1951930.000000 19106190.000000 253 254 246
6115548.500000 -1937103.875000 18961066.000000 253 254 248
6104862.500000 -1927359.375000 18865684.000000 253 254 249
6074780.000000 -1911575.250000 18711182.000000 253 254 249
6053222.500000 -1898568.000000 18583862.000000 253 254 249
6031988.000000 -1885746.375000 18458360.000000 253 254 248
6002846.500000 -1870544.250000 18309556.000000 253 254 249
5992692.000000 -1861337.750000 18219440.000000 255 255 251
5970608.500000 -1848497.500000 18093754.000000 255 255 251
5963016.500000 -1840212.000000 18012654.000000 255 255 250
5953090.000000 -1831261.375000 17925042.000000 254 255 249
5925351.000000 -1816906.000000 17784526.000000 254 255 249
5907918.500000 -1805792.500000 17675742.000000 254 255 251
5872620.500000 -1789306.000000 17514368.000000 254 254 252
5851462.000000 -1777218.375000 17396048.000000 254 254 252
5829138.500000 -1764854.375000 17275026.000000 254 254 252
5792435.500000 -1748228.000000 17112280.000000 254 254 252
5772801.500000 -1736841.500000 17000826.000000 254 254 251
5739428.000000 -1721405.125000 16849728.000000 254 255 251
5720964.500000 -1710523.125000 16743212.000000 254 254 251
5706465.000000 -1700890.000000 16648920.000000 254 254 252
5683310.000000 -1688744.750000 16530037.000000 254 254 252
5676260.500000 -1681445.250000 16458587.000000 254 254 252
5659636.500000 -1671363.125000 16359900.000000 254 254 252
5654363.000000 -1664684.625000 16294529.000000 254 254 252
5648660.000000 -1657920.875000 16228323.000000 254 254 252
5630780.500000 -1647635.375000 16127644.000000 254 254 252
5621986.000000 -1640062.625000 16053520.000000 254 254 252
5600008.500000 -1628701.875000 15942316.000000 253 253 251
5585054.000000 -1619445.875000 15851715.000000 253 254 251
5573756.500000 -1611302.875000 15772009.000000 254 254 251
5561762.000000 -1603007.875000 15690814.000000 254 255 250
5565245.000000 -1599210.125000 15653641.000000 254 255 250
5561211.500000 -1593281.500000 15595610.000000 255 255 251
5561561.500000 -1588640.625000 15550182.000000 254 255 250
5562136.000000 -1584090.875000 15505648.000000 253 254 249
5556734.000000 -1577871.000000 15444765.000000 254 255 250
5558226.500000 -1573639.875000 15403350.000000 254 254 252
5555858.500000 -1568343.875000 15351511.000000 254 254 252
5564952.500000 -1566305.000000 15331553.000000 254 254 252
5568553.500000 -1562736.500000 15296624.000000 254 254 252
5552757.000000 -1553761.000000 15208768.000000 254 254 252
5537376.000000 -1544953.750000 15122559.000000 254 254 254
5508533.500000 -1532452.375000 15000192.000000 254 254 254
5491230.000000 -1523224.250000 14909864.000000 254 254 254
5475806.500000 -1514569.250000 14825146.000000 254 254 254
5454811.500000 -1504427.375000 14725873.000000 254 254 254
5449174.500000 -1498567.125000 14668511.000000 254 254 254
5431502.500000 -1489440.125000 14579173.000000 254 254 254
5420433.500000 -1482170.750000 14508017.000000 254 254 254
5410109.500000 -1475145.625000 14439253.000000 254 254 254
5393547.000000 -1466464.250000 14354276.000000 254 254 254
5388956.000000 -1461077.625000 14301550.000000 254 254 254
5375979.000000 -1453454.125000 14226928.000000 254 254 253
5371067.000000 -1448047.750000 14174009.000000 255 255 251
5366773.000000 -1442837.875000 14123013.000000 254 255 250
5356070.500000 -1435938.875000 14055484.000000 254 254 251
5354265.000000 -1431457.000000 14011613.000000 254 254 252
5339047.500000 -1423424.250000 13932986.000000 254 254 252
5327909.000000 -1416520.625000 13865410.000000 254 254 254
5314704.000000 -1409107.000000 13792843.000000 254 254 253
5294984.500000 -1400012.000000 13703818.000000 254 254 253
5287160.000000 -1394103.125000 13645980.000000 254 254 253
5266591.500000 -1384875.750000 13555659.000000 254 254 253
5255856.000000 -1378277.250000 13491071.000000 253 253 252
5241012.000000 -1370640.250000 13416317.000000 253 254 250
5211774.500000 -1359290.750000 13305224.000000 253 254 249
5192875.500000 -1350691.875000 13221055.000000 253 254 249
5153380.500000 -1336796.875000 13085046.000000 253 254 248
5124406.500000 -1325698.625000 12976412.000000 254 253 248
5093684.500000 -1314208.875000 12863946.000000 254 253 248
5052502.000000 -1300089.250000 12725738.000000 254 254 246
5030787.000000 -1291040.875000 12637170.000000 255 255 247
4989450.500000 -1277018.750000 12499917.000000 255 254 248
4962397.500000 -1266717.375000 12399082.000000 254 253 249
4931472.500000 -1255484.875000 12289135.000000 254 253 248
4882582.000000 -1239750.000000 12135116.000000 254 254 244
4850901.000000 -1228456.375000 12024570.000000 254 254 242
4794833.500000 -1211062.750000 11854315.000000 254 254 242
4759121.500000 -1198888.125000 11735146.000000 254 255 242
4715188.000000 -1184711.750000 11596383.000000 254 255 241
4644047.000000 -1163791.250000 11391605.000000 255 254 239
4593104.000000 -1148027.875000 11237308.000000 255 254 235
4506708.500000 -1123508.375000 10997302.000000 255 255 239
4441420.000000 -1104364.000000 10809910.000000 255 255 238
4376436.000000 -1085394.250000 10624227.000000 255 254 236
4304795.000000 -1064875.375000 10423381.000000 255 255 237
4270159.000000 -1053592.500000 10312940.000000 255 255 235
4178840.000000 -1028417.687500 10066520.000000 253 255 230
4211636.500000 -1033838.437500 10119580.000000 253 255 229
4042105.750000 -989692.562500 9687465.000000 253 253 233
3666777.500000 -895510.875000 8765581.000000 255 255 243
3339029.000000 -813397.812500 7961828.500000 255 255 243
2554782.750000 -620777.625000 6076393.500000 228 212 192
7274787.000000 -3084292.500000 30507972.000000 254 254 254
7263919.000000 -3066001.000000 30327042.000000 254 254 254
7218485.000000 -3033345.750000 30004036.000000 254 254 254
7149230.000000 -2991012.250000 29585298.000000 254 254 254
7074117.500000 -2946610.250000 29146100.000000 254 254 254
7036791.500000 -2918266.250000 28865740.000000 254 254 254
6993347.000000 -2887642.500000 28562828.000000 254 254 254
6988752.500000 -2873256.250000 28420528.000000 254 254 253
6991832.000000 -2862135.000000 28310522.000000 254 254 252
6966755.000000 -2839633.000000 28087946.000000 254 254 252
6953322.500000 -2822049.000000 27914016.000000 254 255 250
6924691.500000 -2798472.750000 27680812.000000 254 254 249
6922524.000000 -2785745.250000 27554922.000000 254 253 248
6910024.500000 -2768985.250000 27389140.000000 254 253 248
6857526.000000 -2736404.750000 27066874.000000 254 253 249
6814446.500000 -2707839.750000 26784326.000000 254 253 248
6745532.500000 -2669289.750000 26403012.000000 254 254 246
6699454.000000 -2640058.250000 26113872.000000 254 254 246
6668537.500000 -2617018.500000 25885976.000000 255 255 244
6643602.000000 -2596506.000000 25683078.000000 254 254 244
6655267.500000 -2590407.500000 25622756.000000 254 254 244
6650460.000000 -2577973.250000 25499764.000000 253 253 243
6644411.500000 -2565161.000000 25373034.000000 255 255 245
6641245.500000 -2553560.750000 25258292.000000 255 255 245
6641276.500000 -2543278.500000 25156584.000000 255 255 245
6658645.500000 -2539691.500000 25121106.000000 254 254 244
6654230.000000 -2527857.750000 25004052.000000 254 254 244
6641818.000000 -2513092.500000 24858004.000000 254 254 243
6629214.000000 -2498372.000000 24712398.000000 253 253 243
6622275.500000 -2485894.750000 24588978.000000 253 253 244
6635782.500000 -2481160.250000 24542148.000000 254 254 244
6640942.000000 -2473354.000000 24464934.000000 254 254 244
6647548.000000 -2466145.500000 24393632.000000 254 254 244
6657480.000000 -2460222.000000 24335040.000000 254 254 244
6669362.500000 -2455062.500000 24284004.000000 254 254 244
6691295.500000 -2453628.000000 24269816.000000 254 254 244
6704759.000000 -2449111.000000 24225136.000000 254 254 245
6716527.500000 -2444012.000000 24174700.000000 254 254 243
6726148.000000 -2438173.000000 24116944.000000 254 254 242
6733873.500000 -2431694.250000 24052860.000000 254 254 243
6748571.500000 -2427772.750000 24014070.000000 254 254 244
6751974.000000 -2419832.750000 23935534.000000 254 254 244
6759586.500000 -2413455.500000 23872454.000000 255 255 245
6760308.500000 -2404675.000000 23785602.000000 255 255 245
6746009.500000 -2390637.250000 23646748.000000 255 255 245
6738167.500000 -2378983.000000 23531474.000000 255 255 245
6718583.500000 -2363285.250000 23376198.000000 254 254 244
6717424.000000 -2354160.250000 23285940.000000 254 254 244
6710700.000000 -2343159.000000 23177124.000000 254 254 244
6679405.000000 -2323690.750000 22984556.000000 254 254 244
6656986.500000 -2307441.250000 22823824.000000 254 254 244
6613488.000000 -2284029.500000 22592250.000000 254 254 244
6586308.000000 -2266403.000000 22417898.000000 255 255 245
6562355.000000 -2250010.000000 22255750.000000 255 255 245
6530314.500000 -2230972.000000 22067436.000000 255 255 245
6521844.500000 -2220094.000000 21959838.000000 255 255 245
6495231.500000 -2203140.000000 21792138.000000 254 254 244
6480873.000000 -2190448.250000 21666598.000000 253 253 243
6463635.000000 -2176876.500000 21532358.000000 254 254 244
6429264.000000 -2157651.250000 21342190.000000 254 254 244
6410581.500000 -2143807.500000 21205258.000000 254 254 244
6372242.500000 -2123510.500000 21004492.000000 254 254 244
6346994.000000 -2107702.750000 20848132.000000 254 254 246
6325917.000000 -2093385.625000 20706514.000000 254 254 245
6300053.000000 -2077589.000000 20550264.000000 254 254 246
6296615.000000 -2069271.750000 20467994.000000 254 254 246
6274805.000000 -2054994.875000 20326776.000000 254 254 246
6257218.000000 -2042194.500000 20200162.000000 254 254 246
6241969.000000 -2030242.250000 20081938.000000 254 254 246
6225004.000000 -2017815.375000 19959018.000000 254 254 246
6227031.500000 -2011608.250000 19897622.000000 254 254 246
6216102.000000 -2001271.875000 19795380.000000 254 254 244
6212611.500000 -1993392.125000 19717438.000000 254 254 244
6205171.000000 -1984302.250000 19627528.000000 254 254 244
6183257.000000 -1970660.625000 19492592.000000 254 254 244
6171149.000000 -1960225.125000 19389370.000000 254 255 245
6143259.500000 -1944862.750000 19237416.000000 253 255 244
6127875.000000 -1933548.375000 19125500.000000 253 255 244
6112080.000000 -1922179.750000 19013048.000000 253 254 246
6085504.500000 -1907507.000000 18867914.000000 253 254 246
6074838.000000 -1897901.125000 18772898.000000 254 255 249
6044853.000000 -1882342.375000 18619002.000000 253 254 248
6023446.500000 -1869548.000000 18492448.000000 253 254 249
6002206.000000 -1856888.250000 18367224.000000 252 253 248
5972777.000000 -1841785.750000 18217838.000000 252 253 246
5962155.500000 -1832561.750000 18126600.000000 254 255 248
5939216.000000 -1819623.250000 17998620.000000 254 255 248
5930804.000000 -1811204.500000 17915348.000000 253 254 248
5919959.000000 -1802099.000000 17825282.000000 254 255 249
5891279.000000 -1787639.875000 17682262.000000 254 255 249
5873269.500000 -1776500.500000 17572078.000000 254 255 251
5836967.500000 -1759916.375000 17408036.000000 254 254 253
5814746.000000 -1747669.125000 17286894.000000 254 254 254
5791532.500000 -1735202.125000 17163578.000000 254 254 254
5754232.500000 -1718606.000000 16999420.000000 254 254 253
5734515.000000 -1707349.125000 16888072.000000 254 254 252
5701081.500000 -1692091.375000 16737153.000000 254 254 252
5682541.000000 -1681335.375000 16630760.000000 254 254 252
5667995.500000 -1671824.375000 16536683.000000 254 254 252
5644817.000000 -1659833.875000 16418080.000000 254 254 252
5637725.500000 -1652632.875000 16346853.000000 254 254 252
5620947.000000 -1642645.500000 16248064.000000 254 254 252
5615571.000000 -1636041.375000 16182739.000000 254 254 252
5609478.500000 -1629269.500000 16115756.000000 254 254 252
5590125.000000 -1618699.000000 16011199.000000 254 254 252
5579589.000000 -1610738.250000 15932456.000000 254 254 252
5558760.500000 -1599863.375000 15824889.000000 254 254 253
5545288.000000 -1591165.000000 15738850.000000 254 254 252
5539815.500000 -1584807.625000 15675966.000000 254 254 252
5541167.500000 -1580435.000000 15632714.000000 255 255 252
5558629.000000 -1580669.250000 15635032.000000 255 255 252
5566542.000000 -1578195.125000 15610559.000000 255 255 253
5570832.500000 -1574711.750000 15576104.000000 255 255 253
5570050.000000 -1569819.125000 15527709.000000 254 255 250
5562793.500000 -1563136.500000 15461609.000000 254 255 250
5560804.500000 -1557969.000000 15410494.000000 254 254 252
5550554.500000 -1550524.125000 15336854.000000 254 254 252
5550176.000000 -1545872.500000 15290844.000000 254 254 252
5545722.500000 -1540116.375000 15233907.000000 254 254 252
5526363.500000 -1530266.375000 15136477.000000 254 254 252
5512878.000000 -1522095.500000 15055655.000000 254 254 254
5486055.500000 -1510300.125000 14938982.000000 254 254 254
5469818.500000 -1501478.750000 14851727.000000 254 254 254
5455217.000000 -1493155.750000 14769401.000000 254 254 254
5434473.000000 -1483204.250000 14670966.000000 254 254 254
5428435.000000 -1477311.875000 14612683.000000 254 254 254
5410719.000000 -1468284.250000 14523386.000000 254 254 254
5400012.500000 -1461204.625000 14453359.000000 254 254 254
5390123.000000 -1454385.750000 14385911.000000 254 254 254
5373849.500000 -1445887.750000 14301854.000000 254 254 254
5369307.000000 -1440585.250000 14249405.000000 254 254 255
5356345.000000 -1433060.000000 14174970.000000 254 254 254
5351451.000000 -1427729.500000 14122244.000000 254 254 252
5347014.000000 -1422550.375000 14071015.000000 254 254 252
5335979.000000 -1415649.875000 14002760.000000 253 253 251
5333764.000000 -1411121.125000 13957964.000000 253 253 251
5318009.500000 -1403045.500000 13878085.000000 253 253 251
5306604.500000 -1396159.000000 13809967.000000 253 253 251
5292899.000000 -1388706.875000 13736255.000000 253 253 251
5272189.000000 -1379463.000000 13644820.000000 254 254 252
5263402.000000 -1373381.125000 13584662.000000 254 254 252
5241242.500000 -1363852.750000 13490413.000000 254 254 251
5229183.000000 -1356997.500000 13422605.000000 253 254 250
5212891.500000 -1349084.250000 13344332.000000 253 254 249
5181855.500000 -1337408.625000 13228844.000000 253 254 248
5161734.000000 -1328605.625000 13141769.000000 253 254 248
5120463.000000 -1314421.125000 13001465.000000 254 254 248
5090090.500000 -1303103.125000 12889514.000000 255 254 249
5058085.000000 -1291429.000000 12774041.000000 255 254 249
5015443.000000 -1277109.250000 12632398.000000 255 255 247
4992869.000000 -1267962.125000 12541921.000000 255 255 247
4950499.000000 -1253850.125000 12402333.000000 254 254 247
4922677.500000 -1243488.000000 12299838.000000 254 253 247
4891252.000000 -1232273.125000 12188906.000000 254 254 247
4841964.500000 -1216629.125000 12034166.000000 254 254 244
4810195.000000 -1205458.000000 11923667.000000 254 254 242
4754152.000000 -1188278.500000 11753738.000000 254 254 242
4718174.500000 -1176191.375000 11634179.000000 254 254 241
4674529.000000 -1162260.875000 11496387.000000 254 255 239
4604634.000000 -1141893.500000 11294926.000000 255 255 237
4555099.500000 -1126668.375000 11144327.000000 255 254 234
4470775.500000 -1102939.625000 10909617.000000 255 255 236
