ply
		format ascii 1.0
		element vertex 63462
		property float x
		property float y
		property float z
		property uchar red
		property uchar green
		property uchar blue
		end_header
7540161.500000 -2163022.750000 20124232.000000 254 252 253
7614582.000000 -2178184.500000 20265294.000000 254 252 253
7657750.000000 -2184346.000000 20322618.000000 254 252 253
7688366.000000 -2186902.500000 20346404.000000 254 252 253
7706141.000000 -2185802.250000 20336166.000000 254 252 253
7703614.000000 -2178965.750000 20272562.000000 254 252 253
7688602.000000 -2168645.750000 20176548.000000 254 252 253
7674605.000000 -2158669.000000 20083726.000000 254 252 253
7643511.000000 -2143952.000000 19946804.000000 254 252 253
7623536.000000 -2132426.750000 19839574.000000 254 252 253
7606483.500000 -2121780.250000 19740522.000000 254 252 253
7586159.000000 -2110282.250000 19633548.000000 254 252 253
7585524.500000 -2104309.750000 19577982.000000 254 252 253
7572635.500000 -2094979.625000 19491176.000000 254 252 253
7572361.500000 -2089181.000000 19437226.000000 254 252 253
7563441.500000 -2081035.000000 19361438.000000 254 252 253
7527099.000000 -2065408.625000 19216054.000000 254 252 253
7496761.000000 -2051510.000000 19086746.000000 254 252 253
7450042.000000 -2033216.125000 18916544.000000 254 252 253
7421733.500000 -2020031.625000 18793878.000000 254 252 253
7402648.500000 -2009421.625000 18695166.000000 254 252 253
7380393.500000 -1998010.500000 18589000.000000 254 252 253
7380664.000000 -1992742.125000 18539984.000000 254 252 253
7381530.000000 -1987662.125000 18492720.000000 254 252 253
7385652.000000 -1983483.500000 18453844.000000 254 252 253
7408357.000000 -1984304.500000 18461482.000000 254 252 253
7451232.500000 -1990509.500000 18519212.000000 254 252 253
7504825.500000 -1999537.375000 18603204.000000 254 252 253
7585667.500000 -2015758.500000 18754122.000000 254 252 253
7676393.000000 -2034514.125000 18928620.000000 254 252 253
7746606.000000 -2047749.125000 19051754.000000 254 252 253
7769477.000000 -2048433.250000 19058120.000000 254 252 253
7747702.000000 -2037373.500000 18955222.000000 254 252 253
7717845.000000 -2024251.500000 18833138.000000 254 252 255
7687213.000000 -2010994.750000 18709800.000000 254 252 255
7693057.000000 -2007324.000000 18675650.000000 253 251 253
7876704.000000 -2049946.125000 19072196.000000 254 252 252
8147715.000000 -2115027.500000 19677696.000000 255 254 252
8252460.000000 -2136725.750000 19879572.000000 254 253 251
19809424.000000 -5115937.500000 47597428.000000 254 253 249
10297442.000000 -2652611.250000 24679244.000000 255 254 250
2397939.500000 -616135.312500 5732372.000000 252 253 247
1219270.750000 -312488.875000 2907319.750000 255 252 237
828738.750000 -211861.156250 1971104.125000 235 211 189
3303037.250000 -1474099.000000 13851811.000000 254 252 253
3310366.250000 -1470805.375000 13820860.000000 254 252 253
3309077.500000 -1463729.000000 13754366.000000 254 252 253
3307663.750000 -1456659.750000 13687938.000000 254 252 253
3314865.500000 -1453430.250000 13657590.000000 254 252 253
3331778.500000 -1454468.250000 13667345.000000 254 252 253
3346250.750000 -1454436.375000 13667044.000000 254 252 253
3356100.000000 -1452404.125000 13647948.000000 254 252 253
3368260.500000 -1451385.250000 13638374.000000 254 252 253
3387639.000000 -1453472.000000 13657982.000000 254 252 253
3410879.000000 -1457190.625000 13692926.000000 254 252 253
3432149.250000 -1460039.750000 13719699.000000 254 252 253
3447452.500000 -1460337.000000 13722492.000000 254 252 253
3460263.000000 -1459580.375000 13715382.000000 254 252 253
3473855.250000 -1459158.500000 13711418.000000 254 252 253
3487373.250000 -1458709.000000 13707194.000000 254 252 253
3502053.500000 -1458747.375000 13707555.000000 254 252 253
3517414.250000 -1459067.750000 13710565.000000 254 252 253
3534267.000000 -1460001.875000 13719343.000000 254 252 253
3552612.750000 -1461542.500000 13733820.000000 254 252 253
3570769.750000 -1462993.125000 13747451.000000 254 252 253
3591387.000000 -1465435.750000 13770404.000000 254 252 253
3610463.750000 -1467232.625000 13787288.000000 254 252 253
3630831.750000 -1469537.500000 13808947.000000 254 252 253
3654900.500000 -1473315.625000 13844449.000000 254 252 253
3677500.500000 -1476473.625000 13874125.000000 254 252 253
3700577.500000 -1479797.125000 13905355.000000 254 252 253
3713120.000000 -1478898.500000 13896910.000000 254 252 253
3733896.000000 -1481273.125000 13919225.000000 254 252 253
3780542.000000 -1493851.500000 14037421.000000 254 252 253
3834191.250000 -1509087.125000 14180587.000000 254 252 253
3887622.500000 -1524117.875000 14321828.000000 254 252 253
3917581.500000 -1529865.000000 14375832.000000 254 252 253
3939683.250000 -1532511.000000 14400696.000000 254 252 253
3970209.500000 -1538400.750000 14456042.000000 254 252 253
3995434.750000 -1542199.000000 14491733.000000 254 252 253
4027008.000000 -1548408.875000 14550086.000000 254 252 253
4055545.500000 -1553408.375000 14597065.000000 254 252 253
4084893.500000 -1558679.000000 14646592.000000 254 252 253
4119062.500000 -1565742.125000 14712963.000000 254 252 253
4147588.000000 -1570614.625000 14758749.000000 254 252 253
4181615.750000 -1577526.250000 14823695.000000 254 252 253
4210559.500000 -1582475.000000 14870198.000000 254 252 253
4239133.000000 -1587248.000000 14915049.000000 254 252 253
4272190.000000 -1593658.125000 14975283.000000 254 252 253
4299457.500000 -1597868.750000 15014850.000000 254 252 253
4334325.000000 -1604862.250000 15080567.000000 254 252 253
4368056.500000 -1611385.125000 15141861.000000 254 252 253
4399401.500000 -1616982.875000 15194462.000000 254 252 253
4428288.500000 -1621639.500000 15238219.000000 254 252 253
4447748.000000 -1622822.375000 15249334.000000 254 252 253
4470750.500000 -1625284.750000 15272472.000000 254 252 253
4494155.500000 -1627875.000000 15296813.000000 254 252 253
4516858.500000 -1630193.250000 15318596.000000 254 252 253
4539452.000000 -1632455.500000 15339854.000000 254 252 253
4558422.000000 -1633402.875000 15348757.000000 254 252 253
4579036.500000 -1634930.875000 15363115.000000 254 252 253
4599049.500000 -1636233.875000 15375360.000000 254 252 253
4618685.500000 -1637394.250000 15386263.000000 254 252 253
4638548.000000 -1638626.250000 15397840.000000 254 252 253
4656585.500000 -1639207.125000 15403298.000000 254 252 253
4676815.000000 -1640552.875000 15415944.000000 254 252 253
4697616.000000 -1642088.875000 15430378.000000 254 252 253
4718055.500000 -1643488.375000 15443528.000000 254 252 253
4737615.000000 -1644572.750000 15453718.000000 254 252 253
4754801.000000 -1644828.375000 15456120.000000 254 252 253
4771619.000000 -1644955.500000 15457314.000000 254 252 253
4785019.500000 -1643907.500000 15447467.000000 254 252 253
4802412.500000 -1644233.750000 15450533.000000 254 252 253
4829542.500000 -1647880.250000 15484798.000000 254 252 253
4859987.500000 -1652629.000000 15529420.000000 254 252 253
4896554.500000 -1659420.375000 15593238.000000 254 252 253
4927746.000000 -1664350.125000 15639562.000000 254 252 253
4958970.000000 -1669257.875000 15685679.000000 254 252 253
4994134.500000 -1675454.500000 15743908.000000 254 252 253
5022672.500000 -1679394.250000 15780928.000000 254 252 253
5057152.500000 -1685287.625000 15836308.000000 254 252 253
5086724.500000 -1689511.875000 15876002.000000 254 252 253
5117290.500000 -1694037.125000 15918525.000000 254 252 253
5154525.000000 -1700732.750000 15981442.000000 254 252 253
5186607.000000 -1705689.875000 16028024.000000 254 252 253
5226963.500000 -1713326.875000 16099786.000000 254 252 253
5262382.000000 -1719300.500000 16155920.000000 254 252 253
5298021.500000 -1725307.250000 16212364.000000 254 252 253
5339038.000000 -1733020.375000 16284843.000000 254 252 253
5371863.500000 -1738033.375000 16331949.000000 254 252 253
5412230.500000 -1745446.375000 16401607.000000 254 252 253
5447707.000000 -1751239.500000 16456043.000000 254 252 253
5481812.500000 -1756556.000000 16506002.000000 254 252 253
5519140.000000 -1762867.875000 16565313.000000 254 252 253
5548018.500000 -1766449.250000 16598967.000000 254 252 253
5583782.000000 -1772193.250000 16652942.000000 254 252 253
5617392.500000 -1777219.625000 16700174.000000 254 252 253
5649327.500000 -1781686.000000 16742143.000000 254 252 253
5681710.500000 -1786265.125000 16785172.000000 254 252 253
5706208.000000 -1788344.125000 16804708.000000 254 252 253
5734122.500000 -1791477.750000 16834154.000000 254 252 253
5759717.000000 -1793869.125000 16856626.000000 254 252 253
5785031.500000 -1796158.875000 16878142.000000 254 252 253
5812944.500000 -1799238.625000 16907082.000000 254 252 253
5837474.000000 -1801255.375000 16926034.000000 254 252 253
5866439.500000 -1804624.375000 16957692.000000 254 252 253
5889519.000000 -1806167.750000 16972194.000000 254 252 253
5919559.500000 -1809829.625000 17006604.000000 254 252 253
5966259.500000 -1818547.375000 17088522.000000 254 252 253
6013569.000000 -1827397.000000 17171680.000000 254 252 253
6074056.000000 -1840185.625000 17291852.000000 254 252 253
6122368.500000 -1849219.500000 17376742.000000 254 252 253
6172548.000000 -1858761.250000 17466404.000000 254 252 253
6235598.500000 -1872109.875000 17591838.000000 254 252 253
6285920.500000 -1881568.750000 17680722.000000 254 252 253
6355494.500000 -1896716.375000 17823062.000000 254 252 253
6414728.000000 -1908697.375000 17935644.000000 254 252 253
6476808.500000 -1921451.625000 18055494.000000 254 252 253
6555643.000000 -1939086.250000 18221202.000000 254 252 253
6617462.500000 -1951598.750000 18338780.000000 254 252 253
6693266.000000 -1968149.750000 18494306.000000 254 252 253
6749099.000000 -1978748.625000 18593900.000000 254 252 253
6803619.500000 -1988901.625000 18689308.000000 254 252 253
6878819.000000 -2005023.000000 18840796.000000 254 252 253
6940267.500000 -2017054.250000 18953852.000000 254 252 253
7013659.000000 -2032476.750000 19098774.000000 254 252 253
7064499.500000 -2041293.875000 19181626.000000 254 252 253
7117066.000000 -2050557.500000 19268676.000000 254 252 253
7195431.000000 -2067179.625000 19424870.000000 254 252 253
7263707.500000 -2080816.375000 19553012.000000 254 252 253
7357206.000000 -2101580.000000 19748124.000000 254 252 253
7442455.500000 -2119875.750000 19920044.000000 254 252 253
7516258.500000 -2134816.250000 20060436.000000 254 252 253
7583504.000000 -2147815.000000 20182584.000000 254 252 253
7617301.000000 -2151293.750000 20215272.000000 254 252 253
7640164.500000 -2151673.750000 20218844.000000 254 252 253
7656354.000000 -2150177.250000 20204782.000000 254 252 253
7654867.500000 -2143739.000000 20144282.000000 254 252 253
7639498.500000 -2133459.750000 20047690.000000 254 252 253
7625415.500000 -2123596.000000 19955004.000000 254 252 253
7594792.000000 -2109193.250000 19819664.000000 254 252 253
7575685.500000 -2098060.250000 19715048.000000 254 252 253
7559416.000000 -2087772.125000 19618372.000000 254 252 253
7539312.500000 -2076484.500000 19512306.000000 254 252 253
7538301.000000 -2070503.125000 19456100.000000 254 252 253
7524699.000000 -2061105.625000 19367792.000000 254 252 253
7523781.000000 -2055224.250000 19312528.000000 254 252 253
7513962.000000 -2046950.125000 19234776.000000 254 252 253
7476450.000000 -2031197.500000 19086752.000000 254 252 253
7445182.500000 -2017221.875000 18955426.000000 254 252 253
7397041.000000 -1998762.500000 18781968.000000 254 252 253
7367623.500000 -1985448.250000 18656856.000000 254 252 253
7347246.500000 -1974635.375000 18555250.000000 254 252 253
7323098.500000 -1962869.625000 18444690.000000 254 252 253
7321823.500000 -1957281.250000 18392176.000000 254 252 253
7320986.500000 -1951839.500000 18341042.000000 254 252 253
7324197.000000 -1947502.875000 18300292.000000 254 252 253
7346126.000000 -1948153.375000 18306404.000000 254 252 253
7387730.500000 -1954004.500000 18361386.000000 254 252 253
7440322.500000 -1962723.000000 18443312.000000 254 252 253
7519474.000000 -1978383.625000 18590472.000000 254 252 253
7607851.000000 -1996382.875000 18759606.000000 254 252 253
7676879.500000 -2009224.000000 18880272.000000 254 252 253
7702682.000000 -2010714.250000 18894276.000000 254 252 253
7685869.000000 -2001101.250000 18803944.000000 254 252 253
7653369.000000 -1987464.625000 18675804.000000 254 252 255
7612861.500000 -1971824.625000 18528838.000000 254 252 255
7606568.500000 -1965104.500000 18465690.000000 253 251 253
7773134.000000 -2002960.750000 18821418.000000 253 252 252
8028404.500000 -2063420.750000 19389548.000000 255 254 252
8135686.000000 -2085633.125000 19598272.000000 254 253 251
18474210.000000 -4723866.500000 44389220.000000 254 253 249
10091188.000000 -2573741.250000 24184926.000000 255 254 249
2455501.750000 -624678.437500 5869977.000000 252 254 247
1256900.250000 -318943.343750 2997046.250000 255 253 239
848833.500000 -214849.593750 2018898.250000 243 220 199
3284185.500000 -1451027.875000 13772752.000000 254 252 253
3291471.000000 -1447785.000000 13741972.000000 254 252 253
3290169.250000 -1440810.625000 13675773.000000 254 252 253
3288781.000000 -1433859.625000 13609797.000000 254 252 253
3296029.250000 -1430718.750000 13579983.000000 254 252 253
3312958.500000 -1431789.000000 13590142.000000 254 252 253
3327542.750000 -1431841.000000 13590635.000000 254 252 253
3337552.250000 -1429932.500000 13572521.000000 254 252 253
3349797.750000 -1428994.375000 13563616.000000 254 252 253
3369074.250000 -1431050.750000 13583135.000000 254 252 253
3392052.250000 -1434655.125000 13617347.000000 254 252 253
3413199.750000 -1437457.875000 13643949.000000 254 252 253
3428565.000000 -1437812.000000 13647311.000000 254 252 253
3441499.250000 -1437148.000000 13641009.000000 254 252 253
3455157.500000 -1436790.750000 13637617.000000 254 252 253
3468652.250000 -1436368.625000 13633611.000000 254 252 253
3483317.750000 -1436432.875000 13634221.000000 254 252 253
3498646.750000 -1436769.000000 13637412.000000 254 252 253
3515440.250000 -1437701.375000 13646261.000000 254 252 253
3533711.750000 -1439228.000000 13660751.000000 254 252 253
3551770.500000 -1440655.875000 13674304.000000 254 252 253
3572255.250000 -1443052.000000 13697048.000000 254 252 253
3591199.750000 -1444809.000000 13713725.000000 254 252 253
3611403.750000 -1447056.625000 13735058.000000 254 252 253
3634999.500000 -1450639.500000 13769066.000000 254 252 253
3657052.000000 -1453580.250000 13796978.000000 254 252 253
3680935.000000 -1457222.125000 13831546.000000 254 252 253
3695608.000000 -1457203.500000 13831369.000000 254 252 253
3718532.750000 -1460425.750000 13861954.000000 254 252 253
3766327.750000 -1473351.500000 13984642.000000 254 252 253
3819834.500000 -1488401.250000 14127489.000000 254 252 253
3871837.500000 -1502749.250000 14263677.000000 254 252 253
3899428.500000 -1507547.250000 14309218.000000 254 252 253
3919139.750000 -1509273.500000 14325604.000000 254 252 253
3948425.750000 -1514659.250000 14376724.000000 254 252 253
3973844.500000 -1518525.875000 14413424.000000 254 252 253
4005441.000000 -1524714.125000 14472162.000000 254 252 253
4033747.750000 -1529607.625000 14518609.000000 254 252 253
4062851.500000 -1534764.750000 14567559.000000 254 252 253
4096735.500000 -1541681.625000 14633213.000000 254 252 253
4125050.000000 -1546458.125000 14678550.000000 254 252 253
4158789.000000 -1553224.625000 14742775.000000 254 252 253
4187496.500000 -1558068.000000 14788747.000000 254 252 253
4215814.500000 -1562730.750000 14833005.000000 254 252 253
4248562.000000 -1568994.500000 14892459.000000 254 252 253
4275584.500000 -1573105.375000 14931478.000000 254 252 253
4310104.500000 -1579934.250000 14996296.000000 254 252 253
4343526.000000 -1586311.500000 15056826.000000 254 252 253
4374559.500000 -1591772.750000 15108664.000000 254 252 253
4403133.500000 -1596302.500000 15151658.000000 254 252 253
4422380.000000 -1597430.000000 15162360.000000 254 252 253
4445121.500000 -1599806.875000 15184921.000000 254 252 253
4468277.000000 -1602315.125000 15208729.000000 254 252 253
4490765.500000 -1604567.250000 15230105.000000 254 252 253
4513185.500000 -1606778.375000 15251092.000000 254 252 253
4532070.000000 -1607719.625000 15260027.000000 254 252 253
4552557.500000 -1609221.000000 15274277.000000 254 252 253
4572423.500000 -1610492.500000 15286346.000000 254 252 253
4591925.000000 -1611627.000000 15297114.000000 254 252 253
4611688.000000 -1612845.000000 15308676.000000 254 252 253
4629661.500000 -1613431.000000 15314238.000000 254 252 253
4649859.000000 -1614785.125000 15327090.000000 254 252 253
4670611.500000 -1616321.875000 15341676.000000 254 252 253
4691036.500000 -1617734.750000 15355088.000000 254 252 253
4710650.000000 -1618859.000000 15365759.000000 254 252 253
4727876.500000 -1619158.125000 15368598.000000 254 252 253
4744823.000000 -1619359.750000 15370511.000000 254 252 253
4758355.500000 -1618398.625000 15361389.000000 254 252 253
4775827.000000 -1618779.250000 15365001.000000 254 252 253
4802925.000000 -1622409.125000 15399455.000000 254 252 253
4833200.000000 -1627083.625000 15443825.000000 254 252 253
4869657.500000 -1633801.000000 15507583.000000 254 252 253
4900822.500000 -1638703.250000 15554114.000000 254 252 253
4932041.500000 -1643590.375000 15600502.000000 254 252 253
4967175.500000 -1649745.125000 15658921.000000 254 252 253
4995644.500000 -1653652.250000 15696007.000000 254 252 253
5030027.500000 -1659484.750000 15751367.000000 254 252 253
5059487.000000 -1663659.375000 15790991.000000 254 252 253
5089899.500000 -1668118.750000 15833319.000000 254 252 253
5126951.000000 -1674717.375000 15895950.000000 254 252 253
5158849.000000 -1679594.625000 15942244.000000 254 252 253
5198891.500000 -1687082.875000 16013320.000000 254 252 253
5233971.000000 -1692916.875000 16068696.000000 254 252 253
5269248.500000 -1698776.875000 16124317.000000 254 252 253
5309874.000000 -1706317.375000 16195889.000000 254 252 253
5342429.000000 -1711223.875000 16242460.000000 254 252 253
5382418.500000 -1718472.500000 16311262.000000 254 252 253
5417543.500000 -1724126.375000 16364927.000000 254 252 253
5451348.500000 -1729325.250000 16414274.000000 254 252 253
5488430.500000 -1735527.125000 16473140.000000 254 252 253
5517209.000000 -1739072.250000 16506789.000000 254 252 253
5552766.000000 -1744724.625000 16560440.000000 254 252 253
5586061.500000 -1749633.000000 16607029.000000 254 252 253
5617750.000000 -1754008.625000 16648561.000000 254 252 253
5650044.500000 -1758545.375000 16691622.000000 254 252 253
5674596.500000 -1760651.375000 16711613.000000 254 252 253
5702764.500000 -1763862.625000 16742093.000000 254 252 253
5728643.000000 -1766348.000000 16765683.000000 254 252 253
5754282.500000 -1768744.500000 16788430.000000 254 252 253
5782526.500000 -1771924.250000 16818612.000000 254 252 253
5807205.500000 -1773995.375000 16838270.000000 254 252 253
5836526.500000 -1777467.250000 16871224.000000 254 252 253
5859931.000000 -1779121.625000 16886926.000000 254 252 253
5890320.000000 -1782880.000000 16922600.000000 254 252 253
5937435.500000 -1791662.750000 17005964.000000 254 252 253
5984968.000000 -1800517.625000 17090012.000000 254 252 253
6045900.000000 -1813337.750000 17211696.000000 254 252 253
6094626.000000 -1822430.500000 17298002.000000 254 252 253
6145174.000000 -1832011.625000 17388944.000000 254 252 253
6208588.500000 -1845359.500000 17515638.000000 254 252 253
6259018.000000 -1854779.625000 17605052.000000 254 252 253
6328817.000000 -1869866.125000 17748248.000000 254 252 253
6388227.000000 -1881802.625000 17861546.000000 254 252 253
6450468.500000 -1894499.875000 17982066.000000 254 252 253
6529554.500000 -1912054.625000 18148690.000000 254 252 253
6591523.500000 -1924508.250000 18266896.000000 254 252 253
6667549.000000 -1940980.500000 18423246.000000 254 252 253
6723539.000000 -1951540.875000 18523482.000000 254 252 253
6778176.500000 -1961647.875000 18619416.000000 254 252 253
6853531.500000 -1977674.375000 18771534.000000 254 252 253
6915034.000000 -1989622.250000 18884940.000000 254 252 253
6988537.000000 -2004943.250000 19030364.000000 254 252 253
7039567.500000 -2013747.625000 19113930.000000 254 252 253
7092112.500000 -2022932.875000 19201116.000000 254 252 253
7170102.500000 -2039302.625000 19356492.000000 254 252 253
7237797.500000 -2052658.750000 19483264.000000 254 252 253
7330351.500000 -2072968.625000 19676040.000000 254 252 253
7416025.500000 -2091222.625000 19849302.000000 254 252 253
7488217.500000 -2105582.000000 19985598.000000 254 252 253
7548476.000000 -2116514.000000 20089362.000000 254 252 253
7573949.000000 -2117658.250000 20100222.000000 254 252 253
7590034.500000 -2116178.750000 20086180.000000 254 252 253
7604930.000000 -2114376.750000 20069076.000000 254 252 253
7604518.000000 -2108340.750000 20011784.000000 254 252 253
7588910.000000 -2098137.250000 19914936.000000 254 252 253
7574742.500000 -2088387.875000 19822396.000000 254 252 253
7544551.000000 -2074286.875000 19688554.000000 254 252 253
7526259.500000 -2063526.750000 19586422.000000 254 252 253
7510684.000000 -2053568.625000 19491902.000000 254 252 253
7490714.500000 -2042467.375000 19386530.000000 254 252 253
7489288.500000 -2036469.250000 19329600.000000 254 252 253
7474871.500000 -2026981.375000 19239542.000000 254 252 253
7473181.000000 -2020986.750000 19182644.000000 254 252 253
7462376.000000 -2012566.750000 19102722.000000 254 252 253
7423701.500000 -1996696.750000 18952090.000000 254 252 253
7391587.000000 -1982672.250000 18818972.000000 254 252 253
7342202.000000 -1964103.625000 18642724.000000 254 252 253
7311876.000000 -1950719.750000 18515688.000000 254 252 253
7290421.000000 -1939768.125000 18411738.000000 254 252 253
7264575.000000 -1927710.000000 18297286.000000 254 252 253
7261854.000000 -1921836.375000 18241536.000000 254 252 253
7259435.000000 -1916073.750000 18186838.000000 254 252 253
7261766.500000 -1911592.500000 18144304.000000 254 252 253
7282964.500000 -1912088.125000 18149008.000000 254 252 253
7323445.000000 -1917630.125000 18201610.000000 254 252 253
7375184.500000 -1926083.250000 18281846.000000 254 252 253
7452868.000000 -1941249.750000 18425802.000000 254 252 253
7539072.000000 -1958550.000000 18590010.000000 254 252 253
7607069.500000 -1971042.250000 18708584.000000 254 252 253
7635852.500000 -1973335.000000 18730346.000000 254 252 253
7623929.000000 -1965123.625000 18652406.000000 254 252 253
7589405.500000 -1951144.500000 18519720.000000 254 252 255
7540692.500000 -1933599.375000 18353188.000000 254 252 255
7523152.000000 -1924117.625000 18263188.000000 253 251 254
7671404.000000 -1956978.375000 18575094.000000 253 251 252
7908292.500000 -2012223.375000 19099464.000000 255 254 252
8012971.000000 -2033631.250000 19302660.000000 254 253 252
17171496.000000 -4346851.000000 41259100.000000 254 253 249
9858256.000000 -2489187.500000 23626674.000000 255 254 249
2521682.750000 -635099.250000 6028185.500000 252 253 247
1301270.500000 -326900.250000 3102846.250000 255 254 242
872281.125000 -218576.468750 2074667.000000 255 236 217
3259495.250000 -1425571.625000 13669210.000000 254 252 253
3266725.500000 -1422385.500000 13638660.000000 254 252 253
3265399.750000 -1415518.625000 13572816.000000 254 252 253
3264036.750000 -1408696.125000 13507399.000000 254 252 253
3271339.500000 -1405657.125000 13478259.000000 254 252 253
3288280.000000 -1406767.750000 13488909.000000 254 252 253
3302982.250000 -1406915.500000 13490324.000000 254 252 253
3313135.250000 -1405132.375000 13473227.000000 254 252 253
3325450.750000 -1404277.875000 13465033.000000 254 252 253
3344624.750000 -1406314.500000 13484561.000000 254 252 253
3367335.250000 -1409814.375000 13518121.000000 254 252 253
3388345.750000 -1412575.750000 13544598.000000 254 252 253
3403739.500000 -1412982.000000 13548494.000000 254 252 253
3416761.500000 -1412404.500000 13542956.000000 254 252 253
3430490.500000 -1412122.750000 13540255.000000 254 252 253
3443982.500000 -1411746.375000 13536646.000000 254 252 253
3458659.500000 -1411856.750000 13537705.000000 254 252 253
3473958.000000 -1412219.000000 13541177.000000 254 252 253
3490682.750000 -1413155.500000 13550157.000000 254 252 253
3508880.750000 -1414678.250000 13564758.000000 254 252 253
3526832.750000 -1416089.875000 13578294.000000 254 252 253
3547162.750000 -1418440.750000 13600836.000000 254 252 253
3565952.500000 -1420159.250000 13617313.000000 254 252 253
3585957.750000 -1422345.875000 13638281.000000 254 252 253
3608951.250000 -1425695.375000 13670397.000000 254 252 253
3630291.000000 -1428367.250000 13696017.000000 254 252 253
3655382.250000 -1432488.000000 13735529.000000 254 252 253
3673423.750000 -1433824.250000 13748341.000000 254 252 253
3699251.250000 -1438176.750000 13790076.000000 254 252 253
3747026.000000 -1450993.750000 13912973.000000 254 252 253
3798083.500000 -1464976.125000 14047044.000000 254 252 253
3847403.000000 -1478181.125000 14173661.000000 254 252 253
3873488.000000 -1482391.000000 14214028.000000 254 252 253
3892266.250000 -1483782.875000 14227373.000000 254 252 253
3920825.500000 -1488878.000000 14276228.000000 254 252 253
3946248.500000 -1492747.375000 14313330.000000 254 252 253
3977725.000000 -1498868.125000 14372020.000000 254 252 253
4005776.000000 -1503656.125000 14417931.000000 254 252 253
4034595.750000 -1508695.125000 14466247.000000 254 252 253
4068165.250000 -1515465.125000 14531162.000000 254 252 253
4096234.250000 -1520142.625000 14576012.000000 254 252 253
4129659.000000 -1526764.750000 14639509.000000 254 252 253
4158100.500000 -1531501.875000 14684931.000000 254 252 253
4186140.750000 -1536056.125000 14728600.000000 254 252 253
4218527.500000 -1542165.375000 14787179.000000 254 252 253
4245255.500000 -1546168.250000 14825561.000000 254 252 253
4279360.500000 -1552818.375000 14889327.000000 254 252 253
4312385.000000 -1559028.750000 14948875.000000 254 252 253
4343042.000000 -1564340.750000 14999810.000000 254 252 253
4371217.500000 -1568723.125000 15041831.000000 254 252 253
4390203.500000 -1569787.875000 15052040.000000 254 252 253
4412617.500000 -1572066.125000 15073885.000000 254 252 253
4435457.000000 -1574479.000000 15097021.000000 254 252 253
4457691.500000 -1576660.250000 15117936.000000 254 252 253
4479898.000000 -1578816.000000 15138607.000000 254 252 253
4498677.000000 -1579752.875000 15147590.000000 254 252 253
4519027.000000 -1581232.500000 15161778.000000 254 252 253
4538703.000000 -1582466.750000 15173613.000000 254 252 253
4558034.500000 -1583572.500000 15184215.000000 254 252 253
4577678.000000 -1584778.500000 15195779.000000 254 252 253
4595576.500000 -1585374.125000 15201489.000000 254 252 253
4615734.500000 -1586742.250000 15214608.000000 254 252 253
4636418.500000 -1588280.750000 15229361.000000 254 252 253
4656818.500000 -1589711.750000 15243082.000000 254 252 253
4676484.000000 -1590883.000000 15254313.000000 254 252 253
4693755.500000 -1591234.625000 15257683.000000 254 252 253
4710852.500000 -1591524.750000 15260466.000000 254 252 253
4724540.000000 -1590665.000000 15252222.000000 254 252 253
4742100.500000 -1591110.750000 15256496.000000 254 252 253
4769135.500000 -1594721.250000 15291116.000000 254 252 253
4799181.000000 -1599310.750000 15335122.000000 254 252 253
4835464.500000 -1605940.750000 15398694.000000 254 252 253
4866576.500000 -1610814.250000 15445425.000000 254 252 253
4897756.500000 -1615677.375000 15492055.000000 254 252 253
4932802.500000 -1621778.875000 15550560.000000 254 252 253
4961145.000000 -1625643.000000 15587611.000000 254 252 253
4995366.000000 -1631401.375000 15642826.000000 254 252 253
5024699.000000 -1635530.250000 15682416.000000 254 252 253
5054920.000000 -1639919.875000 15724506.000000 254 252 253
5091684.000000 -1646396.375000 15786607.000000 254 252 253
5123300.500000 -1651171.125000 15832390.000000 254 252 253
5162879.500000 -1658472.375000 15902398.000000 254 252 253
5197514.000000 -1664142.875000 15956771.000000 254 252 253
5232300.500000 -1669824.875000 16011253.000000 254 252 253
5272371.000000 -1677150.875000 16081498.000000 254 252 253
5304527.500000 -1681920.125000 16127230.000000 254 252 253
5343979.500000 -1688964.375000 16194774.000000 254 252 253
5378609.000000 -1694444.125000 16247317.000000 254 252 253
5411998.000000 -1699499.125000 16295787.000000 254 252 253
5448744.000000 -1705572.750000 16354024.000000 254 252 253
5477384.000000 -1709078.250000 16387638.000000 254 252 253
5512652.000000 -1714623.125000 16440805.000000 254 252 253
5545503.000000 -1719383.625000 16486451.000000 254 252 253
5576830.500000 -1723643.125000 16527293.000000 254 252 253
5608993.000000 -1728133.125000 16570346.000000 254 252 253
5633611.000000 -1730277.875000 16590911.000000 254 252 253
5662112.000000 -1733597.875000 16622746.000000 254 252 253
5688329.500000 -1736200.500000 16647701.000000 254 252 253
5714388.500000 -1738738.500000 16672037.000000 254 252 253
5743075.000000 -1742058.000000 16703866.000000 254 252 253
5767946.000000 -1744203.125000 16724435.000000 254 252 253
5797765.000000 -1747826.625000 16759179.000000 254 252 253
5821624.000000 -1749636.625000 16776535.000000 254 252 253
5852495.000000 -1753536.750000 16813930.000000 254 252 253
5900186.000000 -1762437.250000 16899274.000000 254 252 253
5948025.500000 -1771327.875000 16984522.000000 254 252 253
6009582.000000 -1784237.250000 17108306.000000 254 252 253
6058892.500000 -1793443.750000 17196582.000000 254 252 253
6109980.500000 -1803119.250000 17289356.000000 254 252 253
6173949.500000 -1816526.750000 17417916.000000 254 252 253
6224591.000000 -1825944.250000 17508216.000000 254 252 253
6294766.500000 -1841018.750000 17652760.000000 254 252 253
6354468.500000 -1852949.375000 17767156.000000 254 252 253
6416961.000000 -1865620.500000 17888656.000000 254 252 253
6496405.000000 -1883130.500000 18056552.000000 254 252 253
6558548.000000 -1895537.000000 18175512.000000 254 252 253
6634877.000000 -1911958.250000 18332968.000000 254 252 253
6691100.500000 -1922506.625000 18434112.000000 254 252 253
6745905.000000 -1932586.875000 18530768.000000 254 252 253
6821461.500000 -1948535.875000 18683696.000000 254 252 253
6882999.000000 -1960399.375000 18797450.000000 254 252 253
6956580.000000 -1975614.625000 18943342.000000 254 252 253
7007805.500000 -1984411.250000 19027690.000000 254 252 253
7060242.500000 -1993499.250000 19114830.000000 254 252 253
7137781.500000 -2009602.500000 19269238.000000 254 252 253
7204856.500000 -2022675.625000 19394592.000000 254 252 253
7295261.500000 -2042205.250000 19581852.000000 254 252 253
7379424.000000 -2059880.875000 19751336.000000 254 252 253
7447789.500000 -2073059.125000 19877698.000000 254 252 253
7499182.000000 -2081451.750000 19958170.000000 254 252 253
7515577.500000 -2080110.750000 19945312.000000 254 252 253
7524120.500000 -2076610.000000 19911746.000000 254 252 253
7537308.000000 -2074407.250000 19890624.000000 254 252 253
7537741.500000 -2068716.500000 19836058.000000 254 252 253
7521491.500000 -2058491.500000 19738014.000000 254 252 253
7506984.000000 -2048799.000000 19645078.000000 254 252 253
7476834.500000 -2034903.375000 19511838.000000 254 252 253
7459093.500000 -2024452.375000 19411628.000000 254 252 253
7443877.500000 -2014742.500000 19318524.000000 254 252 253
7423514.000000 -2003696.750000 19212612.000000 254 252 253
7421208.500000 -1997572.375000 19153888.000000 254 252 253
7405151.500000 -1987790.250000 19060090.000000 254 252 253
7401894.000000 -1981488.000000 18999660.000000 254 252 253
7389334.000000 -1972736.500000 18915746.000000 254 252 253
7348745.000000 -1956569.875000 18760730.000000 254 252 253
7315392.500000 -1942412.500000 18624982.000000 254 252 253
7264418.500000 -1923665.375000 18445224.000000 254 252 253
7233021.500000 -1910189.375000 18316008.000000 254 252 253
7210452.500000 -1899110.875000 18209780.000000 254 252 253
7182883.000000 -1886778.250000 18091528.000000 254 252 253
7178725.000000 -1880644.875000 18032718.000000 254 252 253
7174803.000000 -1874606.000000 17974814.000000 254 252 253
7176222.000000 -1869990.875000 17930562.000000 254 252 253
7196849.500000 -1870392.250000 17934410.000000 254 252 253
7236756.500000 -1875788.875000 17986156.000000 254 252 253
7288240.500000 -1884149.875000 18066326.000000 254 252 253
7365351.000000 -1899074.500000 18209432.000000 254 252 253
7449848.000000 -1915820.250000 18370000.000000 254 252 253
7517576.500000 -1928177.500000 18488488.000000 254 252 253
7551143.000000 -1931730.625000 18522558.000000 254 252 253
7545842.000000 -1925348.375000 18461360.000000 254 252 253
7510438.500000 -1911338.250000 18327024.000000 254 252 255
7454249.500000 -1892124.750000 18142794.000000 254 252 255
7424381.500000 -1879674.500000 18023414.000000 254 252 254
7548645.000000 -1906210.250000 18277852.000000 254 253 253
7759370.500000 -1954387.000000 18739800.000000 254 253 251
7855208.000000 -1973453.500000 18922620.000000 255 255 253
15530302.000000 -3891680.000000 37315692.000000 254 255 250
9528008.000000 -2381498.000000 22835188.000000 255 255 249
2633925.500000 -656667.062500 6296506.000000 251 252 246
1377943.250000 -342664.875000 3285670.250000 255 254 242
912091.437500 -226243.406250 2169353.500000 255 255 239
766370.750000 -189617.546875 1818163.375000 157 136 116
3243177.000000 -1403959.875000 13600777.000000 254 252 253
3250369.500000 -1400821.375000 13570373.000000 254 252 253
3249030.500000 -1394050.125000 13504777.000000 254 252 253
3247681.000000 -1387334.000000 13439715.000000 254 252 253
3255020.000000 -1384372.000000 13411021.000000 254 252 253
3271971.000000 -1385506.125000 13422007.000000 254 252 253
3286723.000000 -1385703.125000 13423916.000000 254 252 253
3296926.750000 -1383989.375000 13407314.000000 254 252 253
3309252.000000 -1383176.875000 13399443.000000 254 252 253
3328347.500000 -1385189.125000 13418936.000000 254 252 253
3350900.500000 -1388616.875000 13452143.000000 254 252 253
3371838.000000 -1391349.000000 13478609.000000 254 252 253
3387254.250000 -1391789.250000 13482875.000000 254 252 253
3400346.000000 -1391274.750000 13477890.000000 254 252 253
3414136.750000 -1391049.250000 13475707.000000 254 252 253
3427639.750000 -1390709.000000 13472410.000000 254 252 253
3442335.250000 -1390853.500000 13473809.000000 254 252 253
3457625.750000 -1391236.000000 13477515.000000 254 252 253
3474312.750000 -1392175.000000 13486612.000000 254 252 253
3492474.750000 -1393695.000000 13501336.000000 254 252 253
3510365.250000 -1395094.500000 13514894.000000 254 252 253
3530609.250000 -1397414.000000 13537365.000000 254 252 253
3549306.500000 -1399105.125000 13553747.000000 254 252 253
3569196.500000 -1401250.750000 13574533.000000 254 252 253
3591755.000000 -1404422.625000 13605260.000000 254 252 253
3612570.750000 -1406890.125000 13629163.000000 254 252 253
3638740.750000 -1411414.875000 13672997.000000 254 252 253
3659877.750000 -1413959.000000 13697643.000000 254 252 253
3688035.500000 -1419184.750000 13748267.000000 254 252 253
3734555.750000 -1431407.125000 13866671.000000 254 252 253
3781880.750000 -1443840.625000 13987119.000000 254 252 253
3828474.250000 -1455898.375000 14103928.000000 254 252 253
3854705.250000 -1460148.750000 14145104.000000 254 252 253
3874553.000000 -1461957.500000 14162626.000000 254 252 253
3903291.500000 -1467093.875000 14212384.000000 254 252 253
3928535.000000 -1470882.125000 14249083.000000 254 252 253
3959805.750000 -1476889.250000 14307275.000000 254 252 253
3987709.500000 -1481599.250000 14352904.000000 254 252 253
4016369.500000 -1486553.250000 14400896.000000 254 252 253
4049759.750000 -1493213.750000 14465419.000000 254 252 253
4077688.750000 -1497817.750000 14510019.000000 254 252 253
4110932.250000 -1504331.875000 14573124.000000 254 252 253
4139230.000000 -1508993.750000 14618287.000000 254 252 253
4167110.750000 -1513469.500000 14661645.000000 254 252 253
4199287.500000 -1519466.250000 14719738.000000 254 252 253
4225837.000000 -1523389.750000 14757747.000000 254 252 253
4259670.500000 -1529900.500000 14820819.000000 254 252 253
4292443.500000 -1535983.500000 14879748.000000 254 252 253
4322852.000000 -1541178.875000 14930078.000000 254 252 253
4350765.000000 -1545449.750000 14971452.000000 254 252 253
4369585.500000 -1546471.500000 14981350.000000 254 252 253
4391782.000000 -1548676.250000 15002709.000000 254 252 253
4414415.000000 -1551018.625000 15025400.000000 254 252 253
4436477.500000 -1553144.000000 15045990.000000 254 252 253
4458549.000000 -1555257.500000 15066464.000000 254 252 253
4477266.500000 -1556190.000000 15075497.000000 254 252 253
4497524.000000 -1557649.250000 15089634.000000 254 252 253
4517072.500000 -1558853.375000 15101298.000000 254 252 253
4536289.500000 -1559934.875000 15111776.000000 254 252 253
4555847.500000 -1561125.750000 15123312.000000 254 252 253
4573692.000000 -1561723.000000 15129098.000000 254 252 253
4593814.000000 -1563091.125000 15142352.000000 254 252 253
4614436.000000 -1564619.250000 15157155.000000 254 252 253
4634807.500000 -1566052.000000 15171035.000000 254 252 253
4654492.000000 -1567243.500000 15182577.000000 254 252 253
4671776.500000 -1567621.375000 15186238.000000 254 252 253
4688952.500000 -1567960.375000 15189522.000000 254 252 253
4702735.000000 -1567166.250000 15181829.000000 254 252 253
4720332.000000 -1567644.250000 15186460.000000 254 252 253
4747311.000000 -1571224.375000 15221142.000000 254 252 253
4777198.000000 -1575739.125000 15264878.000000 254 252 253
4813350.000000 -1582283.000000 15328271.000000 254 252 253
4844407.000000 -1587113.250000 15375064.000000 254 252 253
4875544.000000 -1591937.125000 15421795.000000 254 252 253
4910501.500000 -1597971.875000 15480257.000000 254 252 253
4938736.500000 -1601786.000000 15517206.000000 254 252 253
4972840.000000 -1607471.750000 15572286.000000 254 252 253
5002086.500000 -1611554.750000 15611840.000000 254 252 253
5032181.000000 -1615883.125000 15653771.000000 254 252 253
5068735.000000 -1622250.375000 15715453.000000 254 252 253
5100127.500000 -1626929.250000 15760779.000000 254 252 253
5139372.500000 -1634074.000000 15829993.000000 254 252 253
5173699.000000 -1639613.375000 15883656.000000 254 252 253
5208152.500000 -1645156.875000 15937359.000000 254 252 253
5247821.000000 -1652306.250000 16006618.000000 254 252 253
5279679.500000 -1656958.250000 16051684.000000 254 252 253
5318735.500000 -1663832.000000 16118272.000000 254 252 253
5353014.000000 -1669171.750000 16170002.000000 254 252 253
5386108.000000 -1674109.000000 16217831.000000 254 252 253
5422601.500000 -1680068.125000 16275559.000000 254 252 253
5451139.000000 -1683532.125000 16309117.000000 254 252 253
5486194.500000 -1688980.625000 16361899.000000 254 252 253
5518724.000000 -1693619.625000 16406838.000000 254 252 253
5549784.500000 -1697780.000000 16447142.000000 254 252 253
5581849.000000 -1702220.250000 16490156.000000 254 252 253
5606515.500000 -1704383.750000 16511116.000000 254 252 253
5635229.500000 -1707760.375000 16543826.000000 254 252 253
5661664.000000 -1710427.250000 16569661.000000 254 252 253
5687989.500000 -1713044.625000 16595017.000000 254 252 253
5716971.000000 -1716443.375000 16627942.000000 254 252 253
5741976.500000 -1718630.875000 16649134.000000 254 252 253
5772122.500000 -1722339.000000 16685056.000000 254 252 253
5796296.000000 -1724247.750000 16703547.000000 254 252 253
5827493.500000 -1728227.875000 16742103.000000 254 252 253
5875571.500000 -1737174.500000 16828774.000000 254 252 253
5923604.500000 -1746053.500000 16914788.000000 254 252 253
5985573.500000 -1758974.125000 17039956.000000 254 252 253
6035272.500000 -1768221.750000 17129542.000000 254 252 253
6086726.500000 -1777926.375000 17223556.000000 254 252 253
6151087.000000 -1791331.500000 17353416.000000 254 252 253
6201883.500000 -1800717.750000 17444346.000000 254 252 253
6272318.500000 -1815733.250000 17589806.000000 254 252 253
6332219.000000 -1827618.750000 17704948.000000 254 252 253
6394876.500000 -1840227.125000 17827090.000000 254 252 253
6474521.500000 -1857635.000000 17995728.000000 254 252 253
6536732.500000 -1869952.750000 18115056.000000 254 252 253
6613224.500000 -1886271.375000 18273142.000000 254 252 253
6669593.000000 -1896771.375000 18374858.000000 254 252 253
6724517.500000 -1906800.625000 18472018.000000 254 252 253
6800180.000000 -1922634.625000 18625408.000000 254 252 253
6861716.500000 -1934394.375000 18739330.000000 254 252 253
6935303.500000 -1949473.125000 18885404.000000 254 252 253
6986622.000000 -1958223.500000 18970172.000000 254 252 253
7038941.500000 -1967203.125000 19057162.000000 254 252 253
7116252.000000 -1983095.250000 19211116.000000 254 252 253
7183045.500000 -1995974.125000 19335880.000000 254 252 253
7271407.000000 -2014755.375000 19517822.000000 254 252 253
7353095.500000 -2031586.000000 19680868.000000 254 252 253
7417701.500000 -2043614.625000 19797394.000000 254 252 253
7463427.500000 -2050388.375000 19863014.000000 254 252 253
7475097.000000 -2047794.000000 19837882.000000 254 252 253
7479645.000000 -2043269.000000 19794046.000000 254 252 253
7491803.000000 -2040842.375000 19770538.000000 254 252 253
7492556.000000 -2035331.125000 19717148.000000 254 252 253
7475753.000000 -2025095.125000 19617988.000000 254 252 253
7460898.000000 -2015442.250000 19524476.000000 254 252 253
7430495.500000 -2001654.625000 19390910.000000 254 252 253
7412840.000000 -1991368.000000 19291258.000000 254 252 253
7397540.500000 -1981769.125000 19198270.000000 254 252 253
7376588.500000 -1970713.125000 19091164.000000 254 252 253
7373512.000000 -1964480.125000 19030784.000000 254 252 253
7356058.000000 -1954461.375000 18933728.000000 254 252 253
7351422.500000 -1947893.875000 18870106.000000 254 252 253
7337428.000000 -1938889.250000 18782874.000000 254 252 253
7295369.000000 -1922537.625000 18624468.000000 254 252 253
7261170.500000 -1908340.375000 18486934.000000 254 252 253
7209247.500000 -1889574.125000 18305136.000000 254 252 253
7177270.000000 -1876123.000000 18174830.000000 254 252 253
7154209.500000 -1865068.625000 18067740.000000 254 252 253
7125833.500000 -1852691.625000 17947838.000000 254 252 253
7120990.500000 -1846482.875000 17887692.000000 254 252 253
7116421.500000 -1840378.125000 17828552.000000 254 252 253
7117376.500000 -1835730.375000 17783528.000000 254 252 253
7137839.500000 -1836125.875000 17787358.000000 254 252 253
7177871.000000 -1841539.375000 17839802.000000 254 252 253
7229677.000000 -1849937.375000 17921156.000000 254 252 253
7307161.500000 -1864844.500000 18065570.000000 254 252 253
7391171.000000 -1881334.250000 18225312.000000 254 252 253
7459315.000000 -1893709.875000 18345200.000000 254 252 253
7496558.500000 -1898196.625000 18388666.000000 254 252 253
7495772.500000 -1893055.625000 18338864.000000 254 252 253
7460797.500000 -1879329.375000 18205890.000000 254 252 255
7401614.500000 -1859592.000000 18014686.000000 253 251 255
7364808.000000 -1845564.250000 17878792.000000 254 252 254
7472538.000000 -1867735.000000 18093572.000000 255 253 254
7663969.000000 -1910658.875000 18509394.000000 254 253 251
7749612.500000 -1927057.000000 18668250.000000 255 255 253
14478503.000000 -3591089.750000 34788468.000000 254 255 250
9287728.000000 -2297751.000000 22259324.000000 255 255 249
2728283.000000 -673250.250000 6522071.500000 253 253 247
1444157.000000 -355465.968750 3443555.250000 254 253 242
945761.875000 -232201.328125 2249436.500000 255 255 243
780476.312500 -191136.968750 1851628.000000 169 149 129
3219069.500000 -1379156.625000 13499678.000000 254 252 253
3226186.250000 -1376064.125000 13469407.000000 254 252 253
3224785.250000 -1369381.875000 13404000.000000 254 252 253
3223420.500000 -1362773.875000 13339319.000000 254 252 253
3230799.000000 -1359904.125000 13311228.000000 254 252 253
3247772.250000 -1361080.375000 13322741.000000 254 252 253
3262611.750000 -1361355.875000 13325439.000000 254 252 253
3272887.000000 -1359733.000000 13309553.000000 254 252 253
3285217.750000 -1358974.250000 13302126.000000 254 252 253
3304198.750000 -1360961.250000 13321576.000000 254 252 253
3326519.000000 -1364300.875000 13354264.000000 254 252 253
3347349.000000 -1367003.250000 13380717.000000 254 252 253
3362793.500000 -1367492.875000 13385510.000000 254 252 253
3375976.750000 -1367062.625000 13381298.000000 254 252 253
3389855.500000 -1366916.500000 13379867.000000 254 252 253
3403375.750000 -1366627.625000 13377040.000000 254 252 253
3418108.000000 -1366825.875000 13378980.000000 254 252 253
3433393.750000 -1367242.750000 13383061.000000 254 252 253
3450030.000000 -1368191.750000 13392351.000000 254 252 253
3468145.000000 -1369717.125000 13407281.000000 254 252 253
3485943.250000 -1371105.375000 13420869.000000 254 252 253
3506067.750000 -1373393.375000 13443266.000000 254 252 253
3524649.750000 -1375061.125000 13459590.000000 254 252 253
3544377.250000 -1377160.500000 13480139.000000 254 252 253
3566267.500000 -1380079.750000 13508715.000000 254 252 253
3586255.250000 -1382242.375000 13529883.000000 254 252 253
3613994.750000 -1387363.500000 13580010.000000 254 252 253
3639701.500000 -1391666.625000 13622131.000000 254 252 253
3671393.500000 -1398215.000000 13686228.000000 254 252 253
3716318.500000 -1409731.250000 13798954.000000 254 252 253
3758440.000000 -1420097.750000 13900425.000000 254 252 253
3801087.000000 -1430580.625000 14003035.000000 254 252 253
3827236.750000 -1434797.000000 14044306.000000 254 252 253
3848275.500000 -1437072.000000 14066574.000000 254 252 253
3877113.500000 -1442230.375000 14117067.000000 254 252 253
3902153.500000 -1445941.750000 14153395.000000 254 252 253
3933156.000000 -1451825.500000 14210987.000000 254 252 253
3960823.250000 -1456437.625000 14256133.000000 254 252 253
3989228.500000 -1461285.000000 14303581.000000 254 252 253
4022343.750000 -1467814.250000 14367491.000000 254 252 253
4050057.750000 -1472330.500000 14411698.000000 254 252 253
4083027.250000 -1478716.000000 14474201.000000 254 252 253
4111091.000000 -1483283.500000 14518910.000000 254 252 253
4138722.500000 -1487661.500000 14561763.000000 254 252 253
4170565.000000 -1493514.750000 14619057.000000 254 252 253
4196828.000000 -1497334.000000 14656440.000000 254 252 253
4230238.500000 -1503665.500000 14718415.000000 254 252 253
4262610.000000 -1509582.125000 14776330.000000 254 252 253
4292615.000000 -1514620.625000 14825648.000000 254 252 253
4320112.000000 -1518740.125000 14865972.000000 254 252 253
4338671.000000 -1519699.125000 14875359.000000 254 252 253
4360502.000000 -1521793.000000 14895854.000000 254 252 253
4382792.000000 -1524031.250000 14917763.000000 254 252 253
4404549.000000 -1526068.875000 14937708.000000 254 252 253
4426366.500000 -1528112.625000 14957712.000000 254 252 253
4444951.500000 -1529029.625000 14966689.000000 254 252 253
4465028.000000 -1530451.375000 14980606.000000 254 252 253
4484364.500000 -1531610.375000 14991950.000000 254 252 253
4503368.500000 -1532647.875000 15002106.000000 254 252 253
4522730.500000 -1533799.500000 15013378.000000 254 252 253
4540428.000000 -1534380.500000 15019066.000000 254 252 253
4560411.500000 -1535727.375000 15032249.000000 254 252 253
4580902.500000 -1537235.000000 15047006.000000 254 252 253
4601182.000000 -1538661.500000 15060968.000000 254 252 253
4620807.500000 -1539860.125000 15072701.000000 254 252 253
4638046.000000 -1540257.625000 15076592.000000 254 252 253
4655238.000000 -1540637.125000 15080307.000000 254 252 253
4669079.500000 -1539908.875000 15073179.000000 254 252 253
4686666.000000 -1540416.625000 15078149.000000 254 252 253
4713457.500000 -1543936.125000 15112598.000000 254 252 253
4743039.500000 -1548342.375000 15155729.000000 254 252 253
4778897.500000 -1554760.875000 15218556.000000 254 252 253
4809791.500000 -1559526.375000 15265202.000000 254 252 253
4840778.500000 -1564289.875000 15311828.000000 254 252 253
4875494.000000 -1570222.125000 15369896.000000 254 252 253
4903492.500000 -1573958.875000 15406472.000000 254 252 253
4937287.500000 -1579524.875000 15460955.000000 254 252 253
