ply
		format ascii 1.0
		element vertex 30495
		property float x
		property float y
		property float z
		property uchar red
		property uchar green
		property uchar blue
		end_header
400786.843750 3160.543213 741229.562500 191 219 181
401775.750000 3162.117676 741598.812500 191 217 178
402882.625000 3164.612549 742183.937500 192 218 179
403919.625000 3166.549805 742638.250000 194 221 180
404970.812500 3168.590820 743116.937500 196 219 177
406107.718750 3171.292725 743750.625000 195 217 175
407134.156250 3173.123535 744179.937500 194 217 175
408335.281250 3176.305908 744926.312500 198 221 177
409469.906250 3178.959961 745548.750000 201 224 180
410640.187500 3181.879639 746233.500000 199 224 180
411926.093750 3185.682617 747125.375000 197 223 178
413059.093750 3188.290283 747736.937500 199 225 180
414384.187500 3192.367920 748693.312500 199 225 181
415586.500000 3195.486084 749424.562500 198 225 182
416815.343750 3198.795654 750200.750000 199 226 183
418207.875000 3203.346436 751268.000000 199 228 184
419425.812500 3206.545166 752018.187500 199 228 184
420852.156250 3211.321777 753138.437500 200 228 185
422124.000000 3214.903564 753978.500000 202 231 188
423398.937500 3218.495605 754820.875000 206 234 191
424828.343750 3223.245605 755934.937500 209 238 195
426049.656250 3226.401855 756675.125000 213 242 199
427503.437500 3231.303467 757824.687500 215 244 201
428814.937500 3235.113281 758718.187500 217 245 204
430138.000000 3238.995850 759628.687500 220 247 208
431621.906250 3244.072510 760819.375000 221 249 209
432880.875000 3247.442627 761609.750000 220 249 209
434385.968750 3252.643311 762829.437500 220 249 210
435725.906250 3256.590332 763755.125000 222 250 211
437092.281250 3260.719971 764723.562500 224 253 214
438664.406250 3266.365967 766047.750000 229 255 219
440007.937500 3270.291992 766968.500000 230 254 219
441640.031250 3276.344482 768388.000000 227 252 215
443084.625000 3280.986084 769476.562500 227 252 214
444550.906250 3285.770996 770598.687500 232 254 218
446240.281250 3292.184082 772102.750000 235 255 222
447655.937500 3296.557861 773128.500000 238 255 225
449354.937500 3302.998047 774638.937500 241 255 229
450824.937500 3307.734619 775749.812500 244 255 233
452299.656250 3312.488770 776864.750000 246 255 235
454035.468750 3319.134033 778423.187500 246 255 237
455499.625000 3323.772705 779511.125000 248 255 240
457151.468750 3329.761719 780915.687500 250 255 242
458478.156250 3333.364746 781760.750000 250 255 241
459803.218750 3336.943359 782599.937500 251 255 242
461416.531250 3342.596924 783925.875000 253 255 243
462832.000000 3346.799072 784911.437500 253 255 242
464757.906250 3354.670898 786757.562500 251 254 240
466694.406250 3362.590820 788614.937500 251 254 242
468540.000000 3369.828369 790312.375000 254 255 246
470134.375000 3375.236084 791580.625000 255 255 246
471112.937500 3376.211670 791809.437500 255 255 247
472679.000000 3381.386475 793023.062500 255 255 248
473733.468750 3382.889648 793375.562500 255 255 248
476094.750000 3393.702393 795911.437500 250 252 241
478533.500000 3405.028076 798567.625000 254 255 243
480452.468750 3412.621826 800348.562500 255 255 249
498059.812500 3531.425049 828210.937500 235 237 221
523383.500000 3704.423340 868783.562500 176 181 161
386596.312500 5133.119141 963390.562500 172 171 143
360307.937500 4771.414551 895505.375000 249 249 223
355047.031250 4689.342773 880102.125000 255 255 246
350957.000000 4623.126953 867674.562500 252 252 248
350631.218750 4606.713867 864594.187500 255 255 251
353203.156250 4628.358887 868656.500000 250 254 246
353741.937500 4623.317871 867710.437500 246 255 242
354325.312500 4618.884277 866878.375000 242 255 237
354860.406250 4613.846680 865932.812500 208 232 203
355575.531250 4611.169434 865430.375000 214 234 208
356342.375000 4609.174316 865056.000000 250 255 242
357006.093750 4605.859863 864433.875000 254 255 245
357751.531250 4603.613770 864012.375000 255 252 246
358350.125000 4599.494629 863239.250000 255 254 249
359002.531250 4596.085449 862599.375000 253 255 249
359602.187500 4592.019531 861836.312500 248 255 247
360062.875000 4586.204590 860745.000000 246 255 248
360632.375000 4581.801758 859918.625000 246 252 248
361083.781250 4575.924316 858815.562500 245 252 248
361701.781250 4572.182617 858113.312500 248 252 248
362314.812500 4568.396973 857402.812500 251 252 247
362753.031250 4562.432129 856283.312500 251 254 247
363304.812500 4557.921387 855436.750000 252 255 248
363740.093750 4551.975586 854320.812500 251 255 248
364313.750000 4547.786621 853534.625000 250 255 252
364944.031250 4544.323730 852884.687500 251 255 255
365544.500000 4540.507812 852168.500000 252 255 255
366306.406250 4538.710938 851831.250000 254 254 254
366884.156250 4534.646484 851068.500000 255 253 254
367354.250000 4529.274902 850060.312500 254 253 253
367957.000000 4525.561523 849363.375000 254 254 252
368914.750000 4526.221680 849487.312500 254 255 253
370163.343750 4530.437988 850278.625000 252 255 255
371138.468750 4531.295410 850439.562500 251 255 255
371579.312500 4525.641113 849378.312500 250 255 254
372182.687500 4521.989258 848692.937500 250 255 255
372893.031250 4519.650879 848254.125000 250 255 255
373763.781250 4519.264160 848181.500000 246 255 251
377702.000000 4555.878906 855053.375000 245 255 252
378126.468750 4550.036621 853956.875000 243 253 250
387959.656250 4657.166504 874063.187500 244 255 248
421824.312500 5051.574219 948086.125000 245 255 248
467917.406250 5590.191895 1049174.625000 200 212 200
525910.062500 5649.410156 1060288.750000 143 146 123
468878.062500 5025.979004 943282.437500 203 202 181
418981.468750 4481.534180 841100.312500 252 252 234
391732.437500 4181.138672 784721.625000 252 252 239
371910.906250 3961.129395 743430.000000 252 252 243
368354.781250 3914.925537 734758.437500 244 254 237
372376.250000 3949.282471 741206.562500 207 229 197
372330.343750 3940.448242 739548.562500 168 194 157
373201.062500 3941.331299 739714.250000 162 190 153
373880.093750 3940.190918 739500.250000 166 198 158
374429.312500 3937.690186 739030.875000 181 212 168
374943.750000 3934.834717 738495.000000 205 233 186
375289.281250 3930.222412 737629.312500 210 236 188
375721.031250 3926.530518 736936.437500 209 235 190
376089.500000 3922.193604 736122.500000 225 245 207
376620.343750 3919.565186 735629.187500 241 255 226
377222.000000 3917.682617 735275.875000 235 255 221
377772.656250 3915.279541 734824.875000 220 249 209
378435.218750 3914.043945 734592.937500 215 244 203
379063.937500 3912.463867 734296.437500 209 238 195
379726.343750 3911.237305 734066.187500 206 234 192
380437.187500 3910.513672 733930.375000 212 240 200
381163.937500 3909.956299 733825.812500 221 249 211
381949.031250 3909.998535 733833.687500 225 252 216
382798.843750 3910.701416 733965.625000 229 254 223
383661.125000 3911.528809 734120.937500 231 255 224
384575.937500 3912.887451 734375.937500 228 255 220
385536.968750 3914.709473 734717.875000 224 251 216
386461.531250 3916.154785 734989.125000 219 246 210
387498.156250 3918.727783 735472.000000 215 243 204
388505.437500 3920.993896 735897.312500 210 238 198
389525.218750 3923.377197 736344.625000 200 228 188
390584.156250 3926.144043 736863.937500 199 227 188
391535.937500 3927.825195 737179.437500 200 228 190
392594.281250 3930.566406 737693.875000 196 224 186
393601.187500 3932.782227 738109.812500 195 223 185
394616.906250 3935.077637 738540.562500 196 224 186
395699.937500 3938.033691 739095.375000 196 223 185
396683.125000 3939.986328 739461.875000 195 223 183
397780.593750 3943.064453 740039.562500 192 220 180
398816.281250 3945.518555 740500.187500 190 219 180
399854.093750 3947.984131 740962.875000 190 220 182
400956.062500 3951.072510 741542.562500 191 220 182
401944.593750 3953.032715 741910.437500 192 219 181
403051.593750 3956.148682 742495.187500 192 219 180
404088.968750 3958.569824 742949.625000 194 221 180
405141.625000 3961.131104 743430.312500 199 224 183
406280.937500 3964.527832 744067.812500 201 224 183
407309.906250 3966.836914 744501.250000 203 225 183
408515.250000 3970.851318 745254.625000 206 229 185
409654.000000 3974.204102 745883.875000 204 227 183
410827.718750 3977.882812 746574.312500 205 229 185
412116.375000 3982.657715 747470.500000 207 234 189
413250.281250 3985.921875 748083.062500 202 228 183
414574.750000 3991.007812 749037.625000 198 224 181
415775.593750 3994.886230 749765.562500 200 227 184
417001.875000 3998.993896 750536.500000 203 232 188
418391.281250 4004.647461 751597.500000 204 232 190
419607.218750 4008.621826 752343.437500 203 231 190
421027.125000 4014.526123 753451.562500 204 232 191
422290.218750 4018.915771 754275.437500 207 235 195
423557.781250 4023.330811 755104.062500 211 239 199
424983.343750 4029.227051 756210.687500 215 243 203
426205.906250 4033.180420 756952.625000 218 245 206
427665.156250 4039.354492 758111.375000 219 247 208
428983.281250 4044.174561 759016.062500 220 248 210
430315.625000 4049.110352 759942.437500 222 250 213
431810.250000 4055.552002 761151.375000 224 252 214
433076.687500 4059.830078 761954.312500 224 252 215
434598.875000 4066.485352 763203.375000 225 252 215
435957.781250 4071.590820 764161.562500 227 252 216
437343.437500 4076.926514 765162.937500 229 253 217
438935.343750 4084.161865 766520.875000 232 255 220
440289.375000 4089.160645 767459.125000 233 255 222
441927.125000 4096.771484 768887.500000 233 254 221
443369.500000 4102.545898 769971.250000 234 253 220
444828.312500 4108.451172 771079.562500 236 254 223
446512.750000 4116.414551 772574.125000 240 255 228
447925.625000 4121.850098 773594.250000 242 255 230
449611.312500 4129.770996 775080.937500 245 255 232
451071.625000 4135.596680 776174.312500 247 255 236
452522.187500 4141.312012 777246.937500 248 255 239
454198.531250 4149.068848 778702.750000 249 254 241
455600.781250 4154.298340 779684.250000 250 253 242
457214.125000 4161.430176 781022.687500 251 254 243
458508.781250 4165.640625 781812.937500 251 255 241
459889.062500 4170.612305 782746.062500 252 255 242
461735.625000 4179.787109 784468.000000 254 255 244
463438.812500 4187.633301 785940.500000 255 255 244
465474.250000 4198.447754 787970.187500 254 255 243
467179.750000 4206.252930 789435.125000 254 255 244
468802.750000 4213.288086 790755.500000 255 255 246
470603.781250 4221.895996 792371.000000 255 255 245
472007.312500 4226.913086 793312.625000 254 254 245
473464.187500 4232.389160 794340.375000 254 254 246
472463.562500 4215.916504 791248.812500 254 254 246
474772.000000 4228.978027 793700.187500 252 253 242
482513.031250 4290.296875 805208.625000 255 255 244
492032.281250 4367.181641 819638.500000 248 249 236
520069.375000 4607.864258 864810.062500 204 207 190
556785.500000 4924.457520 924228.750000 139 145 124
394855.031250 6289.978027 983971.125000 156 157 126
365909.843750 5813.467773 909428.312500 226 226 199
357357.468750 5662.611816 885829.250000 254 254 241
350856.031250 5544.962891 867424.875000 253 254 248
350224.937500 5520.463867 863592.375000 254 255 249
353230.031250 5553.259277 868722.687500 252 255 248
353755.031250 5546.994141 867742.562500 244 255 241
354344.781250 5541.774414 866926.062500 241 255 237
354866.187500 5535.515625 865946.937500 211 234 205
355548.781250 5531.796875 865365.250000 206 226 199
356286.375000 5528.951172 864920.062500 241 251 232
356936.750000 5524.770020 864266.000000 252 255 241
357688.343750 5522.172852 863859.750000 254 253 244
358279.000000 5517.111328 863067.937500 255 253 247
358908.750000 5512.675781 862374.000000 254 255 249
359487.000000 5507.473633 861560.250000 249 255 248
359941.750000 5500.411133 860455.375000 246 255 248
360519.875000 5495.264648 859650.375000 247 253 249
360967.843750 5488.165527 858539.812500 246 252 249
361568.500000 5483.417969 857797.125000 247 252 247
362163.312500 5478.605957 857044.312500 249 253 246
362592.312500 5471.315918 855903.875000 250 255 245
363145.187500 5465.926758 855060.875000 251 255 248
363585.468750 5458.874512 853957.625000 250 255 248
364170.937500 5454.031738 853200.062500 250 255 251
364805.656250 5449.948730 852561.375000 251 255 255
365389.750000 5445.131348 851807.750000 252 255 255
366125.218750 5442.588379 851409.937500 254 254 254
366675.031250 5437.304688 850583.375000 253 253 252
367145.625000 5430.875000 849577.562500 253 253 251
367730.687500 5426.166504 848841.000000 254 254 252
368590.531250 5425.525391 848740.750000 254 255 253
369721.593750 5428.870117 849263.937500 253 255 255
370701.250000 5429.980469 849437.625000 253 254 255
371341.593750 5426.127930 848834.937500 253 254 255
372104.843750 5424.085449 848515.437500 251 254 254
372806.062500 5421.150391 848056.250000 247 252 250
373546.531250 5418.798828 847688.437500 245 254 249
376866.812500 5453.792480 853162.687500 246 255 250
376599.750000 5436.828613 850508.937500 244 254 248
385347.406250 5549.776367 868177.875000 246 255 251
416751.718750 5987.704590 936685.062500 251 255 255
459555.468750 6586.934082 1030425.375000 222 234 225
507485.781250 7256.615723 1135186.875000 141 159 143
557645.250000 7202.284668 1126687.625000 138 146 123
486273.656250 6267.007324 980377.687500 188 191 171
426461.906250 5484.396484 857950.187500 239 239 223
390315.093750 5008.815918 783552.875000 255 255 243
380174.156250 4868.278809 761567.937500 254 254 243
372041.656250 4754.003906 743691.375000 249 253 239
370338.000000 4722.188477 738714.312500 236 250 226
372925.937500 4745.113770 742300.687500 199 222 187
373017.218750 4736.242188 740912.875000 162 189 150
373605.781250 4733.708496 740516.500000 170 200 160
373969.843750 4728.347168 739677.750000 187 218 176
374317.625000 4722.802734 738810.500000 190 221 176
374700.250000 4717.720703 738015.437500 200 228 180
375036.718750 4712.079102 737132.937500 208 233 187
375581.468750 4709.073242 736662.687500 214 236 195
376045.781250 4705.073242 736036.937500 227 245 211
376598.406250 4702.192871 735586.312500 240 253 226
377199.437500 4699.927246 735231.937500 227 249 214
377759.656250 4697.163574 734799.562500 218 246 204
378423.875000 4695.702148 734570.937500 218 246 204
379065.031250 4693.960938 734298.562500 214 243 199
379744.656250 4692.701660 734101.625000 212 241 198
380474.906250 4692.072266 734003.125000 218 246 206
381220.625000 4691.636230 733934.937500 224 252 214
382015.781250 4691.809082 733961.937500 226 253 217
382881.437500 4692.844727 734124.000000 229 254 222
383757.125000 4693.999512 734304.625000 231 255 225
384684.375000 4695.778809 734582.937500 229 255 221
385660.281250 4698.143555 734952.875000 227 254 218
386593.625000 4699.980957 735240.375000 222 250 211
387638.562500 4703.165527 735738.500000 218 247 206
388647.500000 4705.900879 736166.437500 216 245 204
389668.562500 4708.771973 736615.562500 206 234 193
390736.406250 4712.195801 737151.125000 203 231 190
391697.968750 4714.326660 737484.437500 205 233 193
392765.000000 4717.715820 738014.625000 201 229 191
393775.218750 4720.410156 738436.187500 199 226 189
394791.312500 4723.164062 738867.000000 198 226 187
395874.906250 4726.713379 739422.187500 198 226 186
396857.156250 4729.040527 739786.250000 199 227 186
397954.093750 4732.722656 740362.312500 196 226 185
398990.093750 4735.666992 740822.875000 190 221 181
400028.187500 4738.624512 741285.562500 189 219 181
401129.906250 4742.322754 741864.062500 191 221 183
402117.968750 4744.665039 742230.437500 193 222 185
403224.843750 4748.397461 742814.375000 193 221 182
404262.343750 4751.299805 743268.375000 196 223 182
405316.000000 4754.380371 743750.312500 202 227 187
406457.937500 4758.482910 744392.062500 203 228 187
407489.968750 4761.284668 744830.312500 203 227 184
408698.906250 4766.138672 745589.750000 205 228 184
409840.687500 4770.192383 746223.812500 200 223 178
411016.656250 4774.627441 746917.625000 201 225 180
412307.093750 4780.372559 747816.375000 207 233 187
413441.437500 4784.289551 748429.125000 202 228 182
414765.312500 4790.380371 749381.937500 198 224 181
415965.375000 4795.020020 750107.750000 202 229 186
417189.812500 4799.923340 750874.750000 206 235 191
418576.687500 4806.672363 751930.562500 208 236 194
419790.750000 4811.415039 752672.500000 207 235 194
421205.531250 4818.436035 753770.812500 207 238 197
422461.937500 4823.622070 754582.125000 211 241 202
423724.406250 4828.857422 755401.062500 213 243 205
425148.375000 4835.910156 756504.375000 216 245 208
426373.437500 4840.677734 757250.187500 221 248 213
427840.406250 4848.168945 758422.062500 222 249 214
429166.812500 4854.041504 759340.812500 223 250 215
430510.093750 4860.083008 760285.875000 226 251 217
432017.062500 4867.945801 761515.875000 227 253 218
433291.656250 4873.166016 762332.500000 228 254 220
434831.406250 4881.343262 763611.687500 229 254 220
436209.281250 4887.676270 764602.375000 230 253 221
437613.312500 4894.277832 765635.125000 232 253 221
439223.437500 4903.156250 767024.000000 233 254 222
440586.468750 4909.248047 767976.937500 235 255 223
442226.500000 4918.397949 769408.312500 239 255 226
443663.000000 4925.254883 770481.000000 240 255 227
445110.718750 4932.210449 771569.125000 241 255 228
446787.562500 4941.674805 773049.687500 244 255 232
448197.562500 4948.158691 774063.937500 245 255 233
449868.156250 4957.489746 775523.687500 247 255 235
451316.406250 4964.341309 776595.500000 250 255 240
452740.781250 4970.905762 777622.375000 251 255 241
454350.781250 4979.480957 778963.812500 251 254 242
455683.812500 4984.994141 779826.312500 251 253 243
457290.156250 4993.472656 781152.625000 252 255 243
458640.593750 4999.130371 782037.687500 252 255 242
460128.375000 5006.262207 783153.375000 251 255 241
462128.125000 5018.928223 785134.812500 251 255 241
463966.375000 5029.798340 786835.187500 252 254 241
466029.031250 5043.057129 788909.375000 254 254 242
467499.250000 5049.869141 789975.000000 255 255 244
469023.531250 5057.239258 791127.937500 254 254 244
471091.250000 5070.432129 793191.812500 252 252 241
472933.968750 5081.160645 794870.062500 252 252 243
475497.937500 5099.585938 797752.437500 255 255 246
474449.343750 5079.270996 794574.437500 254 254 243
478829.718750 5117.044922 800483.625000 255 255 245
494274.187500 5272.712402 824835.375000 248 249 236
513532.906250 5468.444336 855454.687500 201 205 188
552145.625000 5869.212891 918148.875000 139 144 125
373185.625000 6916.177734 927511.562500 198 198 169
360219.968750 6658.275391 892924.875000 246 246 232
350628.125000 6463.928223 866861.500000 255 255 252
349662.531250 6429.210938 862205.625000 253 254 249
353260.531250 6478.365723 868797.625000 252 255 250
353790.906250 6471.154297 867830.562500 243 253 241
354381.750000 6465.083984 867016.437500 242 255 235
354874.750000 6457.264648 865967.812500 210 233 204
355508.468750 6452.040039 865267.187500 194 215 187
356197.500000 6447.842773 864704.312500 226 236 212
356812.625000 6442.333496 863965.437500 250 254 236
357556.468750 6439.170410 863541.250000 255 255 245
358128.718750 6432.941406 862705.875000 255 254 247
358735.312500 6427.358887 861957.250000 254 254 249
359296.000000 6420.985840 861102.500000 250 255 248
359744.031250 6412.636230 859982.812500 247 255 249
360329.031250 6406.764160 859195.312500 247 254 253
360776.687500 6398.485840 858085.187500 246 253 252
361367.750000 6392.786621 857320.812500 246 254 248
361951.937500 6386.995117 856544.125000 246 255 244
362374.656250 6378.389648 855390.125000 246 255 244
362926.593750 6372.097168 854546.250000 246 255 246
363370.062500 6363.935547 853451.687500 246 255 248
363969.125000 6358.533691 852727.250000 248 255 251
364606.406250 6353.824219 852095.687500 251 255 254
365164.562500 6347.762695 851282.750000 251 255 254
365862.093750 6344.147949 850798.000000 253 255 254
366361.218750 6337.119141 849855.437500 252 255 253
366805.406250 6329.177246 848790.312500 251 255 252
367352.625000 6323.047363 847968.250000 252 255 253
368114.812500 6320.639160 847645.312500 252 255 253
369146.218750 6322.853516 847942.312500 253 254 254
370127.875000 6324.207520 848123.812500 254 253 255
370947.937500 6322.799805 847935.125000 254 253 255
371835.875000 6322.553223 847902.062500 253 255 253
372542.281250 6319.229492 847456.250000 248 253 248
373195.531250 6315.021484 846891.937500 246 254 248
375623.812500 6340.797852 850348.750000 246 255 248
374404.125000 6305.017578 845550.312500 244 254 247
381357.937500 6406.722656 859189.750000 248 255 254
408148.781250 6840.400391 917349.187500 249 254 255
444590.812500 7433.372559 996871.250000 234 248 240
489397.562500 8163.043457 1094725.625000 165 188 170
501587.187500 7556.814941 1013425.812500 157 166 144
440733.656250 6625.760254 888564.375000 226 229 212
395416.156250 5931.753418 795492.812500 255 255 245
371461.875000 5560.502441 745705.250000 253 253 241
370769.375000 5538.303711 742728.250000 253 255 242
370275.406250 5519.158691 740160.750000 243 252 232
370534.812500 5511.300293 739106.875000 217 234 205
372639.468750 5530.863281 741730.437500 182 204 166
373176.687500 5527.128418 741229.562500 162 190 147
373554.937500 5521.060059 740415.687500 182 212 170
373750.718750 5512.325684 739244.375000 197 228 186
374066.718750 5505.396973 738315.187500 197 227 183
374442.031250 5499.369141 737506.812500 206 235 187
374824.468750 5493.470703 736715.750000 208 233 186
375440.656250 5491.015625 736386.562500 217 238 198
375973.593750 5487.355469 735895.687500 233 250 219
376554.375000 5484.407715 735500.375000 232 250 219
377165.375000 5481.910645 735165.562500 222 245 208
377737.875000 5478.866211 734757.187500 220 246 203
378401.281250 5477.150391 734527.062500 221 250 204
379053.562500 5475.280273 734276.312500 219 248 203
379751.500000 5474.076172 734114.812500 218 246 204
380502.531250 5473.641113 734056.500000 221 249 209
381267.968750 5473.414062 734026.062500 225 252 215
382073.062500 5473.756348 734072.000000 225 253 218
382956.218750 5475.213867 734267.437500 229 254 223
383847.656250 5476.782715 734477.812500 232 255 225
384790.312500 5479.075195 734785.250000 229 255 221
385785.000000 5482.097656 735190.562500 227 255 217
386730.156250 5484.405273 735500.062500 222 250 211
387787.000000 5488.284180 736020.250000 218 246 205
388801.000000 5491.542480 736457.187500 215 243 202
389825.062500 5494.929199 736911.437500 205 233 192
390900.406250 5499.023926 737460.500000 201 229 188
391868.187500 5501.592285 737805.000000 202 232 191
392941.437500 5505.627930 738346.187500 200 230 190
393955.125000 5508.814941 738773.562500 196 227 186
394972.187500 5512.035645 739205.500000 194 225 184
396055.843750 5516.171387 739760.125000 194 225 184
397036.468750 5518.858887 740120.562500 196 227 185
398132.562500 5523.137207 740694.312500 194 225 182
399169.468750 5526.579590 741155.937500 192 222 181
400208.656250 5530.039551 741619.937500 194 224 186
401309.968750 5534.342773 742197.000000 197 227 189
402297.062500 5537.057129 742561.062500 198 228 190
403403.281250 5541.396973 743143.062500 200 228 189
404440.468750 5544.773438 743595.875000 202 230 189
405495.125000 5548.375977 744079.000000 209 235 194
406639.781250 5553.193359 744725.062500 207 233 192
407675.250000 5556.503906 745169.000000 202 227 185
408888.625000 5562.221680 745935.812500 204 228 184
410033.093750 5566.981934 746574.187500 205 228 182
411211.593750 5572.184570 747271.937500 204 228 182
412505.656250 5578.930176 748176.500000 204 230 183
413642.468750 5583.527344 748793.062500 203 229 184
414969.968750 5590.675293 749751.687500 205 231 187
416172.625000 5596.117676 750481.500000 208 235 192
417399.750000 5601.867188 751252.562500 210 238 196
418790.531250 5609.787109 752314.687500 209 238 197
420007.750000 5615.356445 753061.562500 210 240 200
421425.468750 5623.579590 754164.437500 215 245 206
422681.500000 5629.618652 754974.312500 220 250 213
423945.062500 5635.734863 755794.500000 222 252 216
425374.875000 5644.033691 756907.437500 223 252 216
426606.906250 5649.681641 757664.812500 224 251 218
428087.687500 5658.596191 758860.375000 225 252 219
429427.718750 5665.620605 759802.375000 226 253 219
430785.781250 5672.855957 760772.687500 228 253 221
432308.281250 5682.225098 762029.187500 230 254 224
433591.812500 5688.424805 762860.625000 232 255 226
435147.531250 5698.165039 764166.875000 233 255 226
436541.062500 5705.749512 765183.937500 234 254 226
437959.312500 5713.627441 766240.500000 235 254 227
439584.000000 5724.165039 767653.625000 236 254 226
440954.562500 5731.360352 768618.562500 238 253 227
442593.218750 5742.006836 770046.375000 242 254 230
444017.968750 5749.844238 771097.437500 243 255 230
445452.187500 5757.774902 772161.000000 244 255 230
447126.000000 5768.768066 773635.250000 248 255 234
448541.718750 5776.396484 774658.312500 250 255 236
450210.187500 5787.246094 776113.312500 250 255 238
451651.781250 5795.145020 777172.625000 252 255 241
453061.812500 5802.610840 778173.812500 254 255 242
454625.625000 5812.015137 779435.000000 254 255 244
455906.531250 5817.774902 780207.437500 254 255 244
457582.562500 5828.547363 781652.062500 254 255 245
459170.468750 5838.159668 782941.187500 254 255 244
460830.593750 5848.653809 784348.562500 253 255 243
462689.375000 5861.627441 786088.375000 251 255 241
464199.156250 5870.140137 787230.000000 251 254 240
466094.093750 5883.483887 789019.500000 253 254 243
467676.593750 5892.842773 790274.625000 255 255 246
469420.875000 5904.203613 791798.187500 254 254 245
470941.812500 5912.719238 792940.187500 253 253 242
471920.531250 5914.408691 793166.750000 254 254 242
477367.031250 5971.985352 800888.250000 255 255 245
481356.250000 6011.158691 806141.687500 253 255 240
493104.843750 6146.918457 824348.062500 245 248 230
519995.187500 6470.614258 867758.125000 211 214 195
550466.812500 6837.647461 916980.062500 146 151 131
378397.156250 8013.661133 940464.125000 186 185 161
362176.625000 7649.909180 897775.125000 244 243 228
350404.531250 7381.784668 866308.687500 255 255 251
349244.906250 7338.048340 861175.812500 253 254 250
353285.750000 7403.521973 868859.687500 251 255 250
353836.781250 7395.711426 867943.062500 246 254 244
354423.531250 7388.687012 867118.687500 241 255 235
354890.750000 7379.213379 866006.875000 215 234 205
355488.687500 7372.499512 865218.937500 193 211 180
356138.312500 7366.890137 864560.625000 214 227 196
356715.968750 7359.824219 863731.437500 247 253 231
357440.656250 7355.820312 863261.562500 255 255 243
357992.968750 7348.298828 862378.875000 254 253 245
358587.843750 7341.687988 861603.000000 255 255 250
359144.781250 7334.334961 860740.062500 254 255 250
359591.125000 7324.767090 859617.250000 251 255 251
360179.875000 7318.141113 858839.625000 247 255 254
360631.062500 7308.761230 857738.750000 245 255 254
361222.937500 7302.272461 856977.312500 244 254 249
361807.625000 7295.671875 856202.625000 244 255 243
362231.250000 7285.863770 855051.562500 244 255 242
362783.406250 7278.684570 854209.062500 244 255 246
363231.781250 7269.463379 853126.937500 244 255 250
363844.156250 7263.562988 852434.437500 246 255 251
364485.968750 7258.277832 851814.187500 250 255 253
365026.843750 7251.014160 850961.750000 250 254 253
365696.500000 7246.337891 850412.937500 250 255 252
366159.812500 7237.605957 849388.187500 250 255 251
366584.625000 7228.158203 848279.375000 249 255 251
367107.406250 7220.683594 847402.250000 248 255 250
367809.625000 7216.766602 846942.500000 249 255 251
368781.468750 7218.145996 847104.437500 253 254 254
369770.000000 7219.844727 847303.750000 254 253 255
370706.562500 7220.522949 847383.312500 253 253 255
371680.031250 7221.914551 847546.687500 251 254 253
372341.250000 7217.247070 846998.937500 249 255 249
372869.468750 7210.030273 846152.000000 246 255 248
375044.656250 7234.618652 849037.562500 242 254 245
374200.937500 7200.993652 845091.500000 242 253 246
380512.156250 7304.887695 857284.187500 250 255 255
403038.343750 7718.826172 905863.062500 247 254 254
432671.687500 8266.578125 970145.937500 242 255 249
473475.468750 9024.635742 1059109.750000 190 212 196
509789.875000 8795.495117 1032218.375000 146 159 137
451642.562500 7775.514160 912515.812500 202 213 190
410891.781250 7058.767090 828400.062500 245 249 235
384001.656250 6582.693848 772529.250000 255 255 246
368404.062500 6301.821289 739566.750000 254 255 242
369896.125000 6313.854980 740978.937500 255 255 243
371027.500000 6319.693359 741664.125000 225 234 212
371433.968750 6313.186035 740900.437500 184 203 169
372689.187500 6321.101562 741829.437500 174 198 157
373003.437500 6313.058105 740885.437500 183 212 166
373269.406250 6304.232910 739849.750000 193 223 179
373432.437500 6293.710449 738614.812500 198 229 186
373826.406250 6287.115723 737840.937500 204 235 189
374321.875000 6282.252441 737270.187500 209 238 190
374775.468750 6276.708008 736619.437500 217 242 196
375411.375000 6274.233398 736329.062500 225 246 208
375966.406250 6270.420898 735881.625000 233 249 220
376561.468750 6267.290039 735514.187500 240 255 228
377176.718750 6264.507324 735187.625000 231 251 216
377751.375000 6261.063477 734783.500000 218 245 200
378409.906250 6259.020996 734543.812500 219 247 199
379064.562500 6256.923340 734297.625000 219 248 203
379771.562500 6255.696289 734153.625000 220 249 207
380534.218750 6255.389648 734117.625000 223 250 211
381309.343750 6255.288574 734105.750000 225 252 217
382118.937500 6255.751953 734160.125000 225 253 219
383010.312500 6257.549805 734371.125000 229 254 223
383909.437500 6259.466797 734596.062500 232 255 226
384859.843750 6262.209961 734918.062500 229 255 221
385864.218750 6265.818359 735341.562500 227 254 217
386815.656250 6268.554688 735662.625000 222 250 211
387878.968750 6273.088867 736194.750000 218 245 205
388896.156250 6276.860840 736637.437500 214 242 201
389921.218750 6280.744141 737093.187500 208 235 194
390997.562500 6285.436523 737643.812500 204 233 192
391964.843750 6288.359863 737986.937500 204 236 195
393038.093750 6292.968750 738527.812500 204 235 194
394052.500000 6296.618652 738956.187500 202 233 192
395070.062500 6300.304688 739388.750000 200 231 189
396152.500000 6305.007812 739940.687500 198 229 187
397131.375000 6308.047852 740297.437500 200 231 189
398226.500000 6312.918457 740869.062500 199 231 188
399264.125000 6316.860352 741331.687500 197 229 187
400304.406250 6320.828613 741797.375000 197 229 190
401405.468750 6325.739258 742373.625000 198 230 191
402391.687500 6328.823730 742735.687500 201 233 193
403497.031250 6333.767090 743315.812500 206 236 195
404533.531250 6337.611328 743767.000000 208 236 196
405588.500000 6341.729980 744250.312500 214 242 201
406734.781250 6347.257812 744899.062500 212 239 197
407772.406250 6351.071777 745346.625000 204 228 186
408988.125000 6357.638672 746117.312500 206 229 186
410133.312500 6363.086426 746756.625000 212 235 190
411312.781250 6369.043457 747455.750000 212 236 190
412609.312500 6376.787109 748364.562500 208 233 189
413748.750000 6382.077637 748985.437500 208 235 191
415080.781250 6390.312988 749951.875000 213 240 195
416287.375000 6396.588867 750688.437500 214 241 198
417519.312500 6403.229492 751467.750000 212 239 198
418916.812500 6412.379395 752541.562500 209 239 198
420139.218750 6418.819336 753297.312500 210 242 201
421564.281250 6428.324707 754412.812500 217 247 209
422825.531250 6435.300781 755231.562500 223 253 217
424095.093750 6442.376465 756061.937500 225 255 220
425533.968750 6451.992676 757190.500000 225 255 220
426772.906250 6458.546875 757959.687500 226 254 222
428265.718750 6468.911133 759176.000000 227 254 223
429617.031250 6477.102539 760137.312500 228 255 223
430985.718750 6485.525391 761125.812500 230 255 225
432518.875000 6496.386719 762400.437500 233 255 228
433807.718750 6503.544434 763240.500000 235 255 229
435370.281250 6514.770996 764558.000000 236 255 229
436769.343750 6523.514160 765584.062500 237 255 229
438191.312500 6532.565918 766646.375000 239 254 230
439820.312500 6544.665527 768066.312500 241 254 231
441192.718750 6552.908691 769033.750000 242 254 232
442826.812500 6565.000000 770452.750000 245 254 233
444239.937500 6573.777832 771482.875000 246 254 233
445664.156250 6582.686523 772528.437500 247 254 234
447338.781250 6595.254883 774003.375000 251 255 238
448763.437500 6604.098145 775041.187500 253 254 241
450439.312500 6616.599121 776508.250000 253 254 241
451880.906250 6625.619141 777566.812500 254 255 242
453291.375000 6634.150391 778568.062500 255 255 244
454840.968750 6644.683594 779804.250000 255 255 245
456101.937500 6650.968750 780541.875000 255 255 245
457881.062500 6664.773926 782162.000000 255 255 246
459760.312500 6679.983887 783947.000000 254 255 245
461580.156250 6694.276367 785624.312500 253 255 243
463122.687500 6704.503418 786824.500000 252 255 242
464067.843750 6706.060547 787007.312500 252 254 241
465697.218750 6717.481934 788347.687500 254 255 244
467588.343750 6732.630859 790125.500000 254 255 245
469705.968750 6750.980957 792279.062500 251 251 240
470322.812500 6747.733398 791897.937500 255 254 243
469866.312500 6729.125977 789714.187500 255 255 243
478451.593750 6839.844238 802707.812500 250 252 235
489671.281250 6987.761719 820067.062500 251 254 234
510629.656250 7273.879883 853645.187500 217 221 200
548335.687500 7797.126465 915052.187500 154 159 137
387642.281250 9234.807617 963441.875000 166 167 145
366172.687500 8700.324219 907680.750000 232 233 216
350817.125000 8313.541016 867328.687500 255 255 249
349038.375000 8249.682617 860666.562500 251 254 247
353415.625000 8331.276367 869179.062500 250 255 249
353848.218750 8319.698242 867971.125000 243 254 243
354482.343750 8312.907227 867262.562500 243 255 236
354948.593750 8302.223633 866148.000000 218 235 206
355489.937500 8293.347656 865222.000000 190 206 174
356075.343750 8285.542969 864407.750000 209 223 190
356592.031250 8276.183594 863431.312500 244 252 225
357285.000000 8270.953125 862885.625000 254 255 239
357798.968750 8261.615234 861911.500000 253 254 243
358367.468750 8253.582031 861073.437500 255 255 249
358907.968750 8244.947266 860172.562500 254 255 250
359340.031250 8233.871094 859017.000000 252 255 252
359927.625000 8226.405273 858238.125000 248 255 254
360365.687500 8215.569336 857107.625000 246 254 253
360934.343750 8207.756836 856292.625000 246 254 249
361499.875000 8199.913086 855474.312500 245 254 243
361918.187500 8188.778809 854312.625000 244 255 240
362478.968750 8180.915039 853492.250000 244 255 246
362941.062500 8170.868652 852444.125000 243 254 251
363568.875000 8164.593750 851789.500000 244 255 251
364219.875000 8158.869629 851192.312500 248 254 252
364757.375000 8150.638184 850333.500000 248 254 252
365413.687500 8145.095215 849755.250000 248 255 252
365851.687500 8134.726074 848673.437500 249 255 252
366260.718750 8123.765137 847529.937500 249 255 250
366753.125000 8114.702148 846584.437500 247 255 249
367379.187500 8108.634277 845951.375000 248 255 250
368271.718750 8108.463379 845933.562500 252 254 253
369255.312500 8110.292480 846124.375000 254 254 255
370314.156250 8113.761719 846486.312500 252 254 255
371381.625000 8117.402832 846866.187500 249 253 252
372005.281250 8111.349609 846234.687500 248 254 251
372414.343750 8100.657227 845119.187500 246 255 249
374286.562500 8121.766113 847321.375000 241 254 244
373826.468750 8092.285645 844245.750000 240 253 244
379335.687500 8191.855469 854633.625000 247 255 255
397106.250000 8555.102539 892530.187500 242 251 250
419576.312500 9017.618164 940783.187500 246 255 254
455738.593750 9771.507812 1019434.375000 207 229 217
458535.187500 8899.290039 928438.312500 193 205 185
407742.906250 7896.492676 823819.250000 241 251 231
384560.093750 7431.546387 775312.687500 255 255 247
374169.500000 7215.269043 752749.062500 251 251 245
366615.687500 7054.501465 735976.625000 253 254 245
369383.625000 7092.609375 739952.312500 255 255 246
371467.437500 7117.446777 742543.562500 206 219 191
371967.312500 7111.895020 741964.312500 157 178 141
372506.031250 7107.107422 741464.875000 171 197 154
372684.562500 7095.482422 740252.062500 195 223 177
372931.656250 7085.209473 739180.312500 203 233 186
373132.718750 7074.106934 738022.000000 200 232 186
373609.843750 7068.273926 737413.500000 201 233 186
374205.500000 7064.703125 737040.937500 210 239 191
374729.625000 7059.799316 736529.312500 217 244 197
375387.500000 7057.430664 736282.250000 225 247 209
375966.187500 7053.586914 735881.187500 242 254 230
376574.750000 7050.317383 735540.125000 244 255 234
377194.000000 7047.261230 735221.312500 233 254 218
377773.750000 7043.481934 734827.000000 222 250 202
378431.062500 7041.161133 734584.875000 217 247 197
379093.906250 7038.952637 734354.437500 219 249 203
379814.718750 7037.827148 734237.062500 223 252 210
380593.593750 7037.780273 734232.125000 224 252 213
381383.562500 7037.938477 734248.625000 224 251 216
382200.843750 7038.598633 734317.500000 223 251 217
383104.500000 7040.843262 734551.687500 227 253 222
384014.750000 7043.200195 734797.562500 230 255 224
384975.312500 7046.468262 735138.562500 228 255 220
385991.031250 7050.730469 735583.187500 226 255 218
386948.906250 7053.920898 735916.062500 224 253 214
388016.968750 7059.103027 736456.687500 220 249 209
389035.406250 7063.363281 736901.187500 216 246 204
390058.500000 7067.691406 737352.687500 211 240 199
391132.031250 7072.914062 737897.562500 208 238 197
392096.031250 7076.138672 738233.937500 208 239 198
393166.656250 7081.270508 738769.375000 208 239 198
394181.093750 7085.372070 739197.312500 207 238 198
395199.343750 7089.525879 739630.625000 205 237 196
396280.968750 7094.798340 740180.687500 202 234 192
397258.937500 7098.197266 740535.312500 203 236 193
398354.281250 7103.675781 741106.812500 203 236 193
399393.968750 7108.141602 741572.750000 200 233 190
400436.312500 7112.637695 742041.812500 200 232 191
401538.000000 7118.168457 742618.812500 202 233 193
402523.750000 7121.625488 742979.500000 206 238 197
403628.937500 7127.178223 743558.812500 210 240 199
404665.468750 7131.499023 744009.562500 206 235 195
405721.281250 7136.142578 744494.000000 208 235 195
406870.406250 7142.405762 745147.437500 206 233 191
407911.468750 7146.751465 745600.812500 198 223 181
409130.687500 7154.195312 746377.375000 199 222 181
410276.937500 7160.336914 747018.125000 205 227 184
411458.000000 7167.061035 747719.625000 210 233 190
412759.000000 7175.844727 748636.062500 214 238 196
413902.875000 7181.868164 749264.437500 214 240 198
415242.750000 7191.262695 750244.562500 214 241 198
416455.937500 7198.431152 750992.437500 215 242 200
417695.656250 7206.029785 751785.187500 216 243 202
419104.093750 7216.504883 752878.000000 216 245 205
420334.343750 7223.877441 753647.125000 217 248 208
421771.875000 7234.777344 754784.312500 221 250 213
423042.218750 7242.774414 755618.625000 224 254 218
424322.406250 7250.908203 756467.187500 225 255 221
425776.968750 7261.985352 757622.875000 227 255 223
427028.250000 7269.560547 758413.125000 227 254 223
428540.781250 7281.546387 759663.562500 228 254 224
429909.125000 7291.041504 760654.187500 230 255 225
431294.250000 7300.784668 761670.687500 233 255 228
432844.906250 7313.288574 762975.125000 235 255 231
434143.187500 7321.489258 763830.687500 237 255 231
435716.312500 7334.285156 765165.687500 237 255 230
437122.968750 7344.236816 766203.937500 238 254 231
438547.687500 7354.455078 767269.937500 240 253 234
440177.312500 7368.064453 768689.750000 243 253 236
441547.000000 7377.280273 769651.250000 246 255 237
443170.687500 7390.698242 771051.125000 248 255 239
444569.125000 7400.316895 772054.562500 249 254 239
445980.750000 7410.119141 773077.187500 250 254 239
447652.125000 7424.193359 774545.562500 254 255 242
449083.156250 7434.236816 775593.375000 254 255 242
450758.375000 7448.278809 777058.312500 254 255 242
452173.125000 7457.972656 778069.687500 255 255 243
453583.906250 7467.565918 779070.500000 255 255 244
455205.937500 7480.596191 780429.937500 254 255 243
456567.000000 7489.297852 781337.750000 254 254 244
458451.781250 7506.543457 783136.875000 254 255 245
460436.562500 7525.360840 785100.062500 252 255 242
462257.593750 7541.437988 786777.375000 250 255 240
463531.656250 7548.549805 787519.312500 251 255 241
464094.187500 7544.069824 787051.937500 252 254 241
465725.281250 7556.944824 788395.187500 250 252 239
467442.812500 7571.173340 789879.562500 250 252 240
470544.187500 7607.725098 793692.875000 255 255 244
473713.125000 7645.235840 797606.312500 250 250 237
476075.906250 7669.625488 800150.812500 253 255 239
491734.312500 7907.738770 824992.500000 255 255 246
512972.375000 8234.572266 859090.125000 218 222 200
544244.562500 8721.029297 909840.875000 157 161 138
395721.687500 10474.007812 983522.437500 146 148 126
369678.593750 9758.882812 916371.250000 222 223 206
351290.156250 9249.059570 868498.187500 255 255 252
348946.843750 9163.252930 860440.812500 252 254 247
353536.531250 9259.476562 869476.375000 251 255 249
353853.468750 9243.583984 867984.000000 246 254 244
354545.968750 9237.558594 867418.250000 241 255 235
355023.562500 9225.979492 866330.937500 213 233 203
355514.968750 9214.818359 865282.937500 189 207 175
356040.718750 9204.603516 864323.750000 209 224 191
356503.812500 9192.825195 863217.750000 240 251 222
357170.031250 9186.331055 862607.937500 253 255 238
357648.625000 9175.057617 861549.375000 254 254 243
358191.312500 9165.482422 860650.187500 255 255 247
358712.812500 9155.414062 859704.812500 254 255 250
359126.250000 9142.646484 858505.875000 253 255 252
359707.906250 9134.215820 857714.250000 251 255 253
360122.750000 9121.601562 856529.750000 249 255 252
360655.062500 9112.019531 855630.000000 249 254 249
361191.875000 9102.600586 854745.500000 248 255 244
361604.750000 9090.111328 853572.750000 245 255 242
362181.968750 9081.805664 852792.875000 243 254 245
362663.968750 9071.161133 851793.312500 242 253 248
363303.062500 9064.488281 851166.750000 243 253 250
363964.625000 9058.408203 850595.750000 247 254 252
364518.531250 9049.684570 849776.687500 249 255 252
365186.906250 9043.840820 849227.937500 249 255 253
365623.625000 9032.301758 848144.375000 249 255 253
366023.281250 9019.906250 846980.437500 247 255 252
366489.250000 9009.203125 845975.375000 246 255 250
367058.656250 9001.086914 845213.312500 246 255 249
367892.187500 8999.472656 845061.687500 248 255 253
368869.375000 9001.372070 845240.000000 252 254 255
370010.937500 9007.263672 845793.250000 252 253 255
371145.562500 9012.957031 846327.937500 247 253 251
371751.593750 9005.818359 845657.562500 248 254 251
372088.656250 8992.213867 844380.062500 247 255 250
373749.062500 9010.579102 846104.625000 242 255 246
373414.906250 8980.884766 843316.312500 241 254 246
378420.531250 9079.452148 852571.812500 246 255 255
393730.281250 9424.181641 884942.375000 242 251 251
412715.156250 9855.023438 925399.000000 247 255 255
446266.187500 10630.803711 998245.687500 221 243 231
483127.375000 11481.565430 1078133.250000 136 159 146
488145.750000 10548.614258 990528.000000 155 168 151
429429.781250 9259.791016 869505.875000 215 226 209
386434.656250 8314.769531 780767.250000 249 253 241
372575.937500 7999.375977 751151.375000 252 254 246
370698.343750 7942.022461 745765.812500 251 251 246
367143.593750 7849.058594 737036.375000 255 255 248
369502.468750 7882.646973 740190.375000 251 255 240
371262.125000 7903.336426 742133.125000 202 222 188
371755.156250 7897.031738 741541.125000 160 184 143
372126.906250 7888.183105 740710.250000 175 203 156
372346.843750 7876.160156 739581.250000 196 226 177
372690.406250 7866.797852 738702.125000 205 236 188
372989.500000 7856.538574 737738.750000 202 235 188
373511.625000 7851.009766 737219.625000 198 230 183
374132.656250 7847.579102 736897.437500 210 240 192
374693.375000 7842.899902 736458.062500 221 249 203
375368.750000 7840.635254 736245.437500 229 252 215
375963.781250 7836.706055 735876.437500 240 255 229
376577.875000 7833.188965 735546.187500 239 253 228
377197.906250 7829.810059 735228.937500 226 247 211
377783.437500 7825.730469 734845.875000 218 246 199
378445.062500 7823.240723 734612.062500 223 253 204
379117.500000 7820.983887 734400.125000 224 254 209
379848.437500 7819.941406 734302.250000 223 254 211
380638.000000 7820.107422 734317.812500 225 255 215
381438.406250 7820.494629 734354.187500 223 252 216
382260.843750 7821.331055 734432.750000 221 251 216
383173.843750 7824.014160 734684.687500 225 253 221
384093.187500 7826.814941 734947.687500 228 255 224
385061.562500 7830.601074 735303.187500 224 254 219
386084.062500 7835.470703 735760.437500 224 254 217
387044.000000 7839.053711 736096.875000 225 255 216
388113.375000 7844.833984 736639.687500 222 253 212
389132.500000 7849.577148 737085.062500 217 248 206
390153.906250 7854.347656 737533.062500 211 242 200
391222.687500 7860.050781 738068.562500 207 239 196
392181.218750 7863.520508 738394.375000 206 237 196
393247.187500 7869.125488 738920.687500 204 235 194
394260.406250 7873.654785 739346.000000 205 237 196
395279.218750 7878.278320 739780.187500 205 237 196
396361.125000 7884.137695 740330.375000 202 236 193
397339.875000 7887.926758 740686.125000 204 237 194
398436.843750 7894.042480 741260.437500 205 238 194
399478.531250 7899.041016 741729.812500 204 237 192
400522.750000 7904.070312 742202.062500 205 239 196
401625.562500 7910.232910 742780.687500 207 241 199
402611.187500 7914.067871 743140.812500 214 247 205
403716.812500 7920.242676 743720.687500 219 249 208
404753.906250 7925.050781 744172.125000 210 238 198
405811.218750 7930.236328 744659.062500 207 235 195
406962.718750 7937.237305 745316.500000 213 239 199
408006.093750 7942.106934 745773.750000 212 237 197
409228.093750 7950.428223 746555.125000 212 237 197
410375.437500 7957.269043 747197.437500 215 240 200
411558.375000 7964.772949 747902.125000 219 244 204
412863.625000 7974.609863 748825.812500 221 246 206
414011.593750 7981.376953 749461.250000 218 244 204
415358.312500 7991.942383 750453.312500 215 243 202
416576.656250 8000.001465 751210.125000 216 244 203
417822.781250 8008.562500 752014.000000 221 249 208
419240.062500 8020.365234 753122.250000 224 254 215
420477.250000 8028.683594 753903.375000 227 255 219
421925.281250 8040.988770 755058.875000 228 255 220
423202.937500 8050.006348 755905.625000 227 255 221
424491.656250 8059.200195 756768.937500 227 255 222
425959.625000 8071.755371 757947.875000 227 255 223
427221.406250 8080.363281 758756.187500 227 254 223
428750.500000 8093.985840 760035.375000 229 255 224
430133.062500 8104.795410 761050.375000 231 255 225
431531.093750 8115.854980 762088.937500 232 255 227
433095.593750 8129.998535 763417.000000 235 255 230
434401.093750 8139.236328 764284.437500 237 255 233
435981.718750 8153.584961 765631.812500 237 255 234
437394.750000 8164.751465 766680.312500 239 255 236
438820.375000 8176.110840 767747.000000 242 254 238
440444.843750 8191.125977 769156.937500 244 254 240
441805.625000 8201.190430 770102.000000 247 255 241
443416.218750 8215.846680 771478.250000 248 255 242
444803.906250 8226.327148 772462.312500 250 255 243
446206.906250 8237.049805 773469.250000 251 254 242
447877.000000 8252.655273 774934.625000 253 255 243
449314.625000 8263.927734 775993.187500 255 255 244
450970.312500 8279.162109 777423.687500 255 255 244
452309.687500 8288.544922 778304.687500 254 255 242
453696.656250 8298.763672 779264.187500 254 255 242
455468.843750 8315.977539 780880.687500 254 255 242
457056.875000 8329.773438 782176.062500 254 255 243
459012.187500 8350.200195 784094.187500 255 255 243
460831.375000 8368.081055 785773.250000 252 254 241
462425.531250 8381.818359 787063.187500 250 254 241
463651.625000 8388.846680 787723.187500 253 255 243
464299.000000 8385.398438 787399.312500 251 253 241
465596.281250 8393.677734 788176.812500 248 251 237
465476.468750 8376.426758 786556.875000 250 252 239
468541.343750 8416.444336 790314.625000 251 252 239
476179.468750 8538.321289 801759.000000 254 255 239
484983.593750 8680.631836 815122.125000 255 255 240
509999.718750 9112.091797 855636.750000 231 233 212
541771.875000 9662.507812 907321.500000 163 167 145
