ply
		format ascii 1.0
		element vertex 31895
		property float x
		property float y
		property float z
		property uchar red
		property uchar green
		property uchar blue
		end_header
301296.656250 132313.593750 637539.812500 119 123 137
301964.500000 132308.921875 637517.312500 118 124 135
302634.343750 132305.140625 637499.062500 120 127 138
303297.687500 132298.546875 637467.250000 116 125 135
303951.937500 132288.015625 637416.562500 110 120 128
304609.093750 132278.796875 637372.187500 105 116 123
305246.218750 132260.953125 637286.125000 104 114 123
305886.031250 132244.343750 637206.125000 104 111 123
306522.156250 132226.203125 637118.750000 104 111 123
307151.125000 132205.078125 637016.937500 108 112 126
307798.093750 132191.765625 636952.812500 109 113 128
308432.625000 132173.187500 636863.312500 104 112 127
309084.406250 132162.062500 636809.687500 99 109 127
309729.781250 132148.265625 636743.187500 99 112 129
310348.562500 132123.203125 636622.437500 108 121 137
310975.531250 132101.718750 636518.875000 111 121 138
311575.531250 132068.890625 636360.750000 104 112 129
312195.468750 132044.656250 636244.000000 98 106 122
312809.906250 132018.203125 636116.500000 101 106 124
313400.500000 131981.812500 635941.125000 105 108 125
314015.531250 131955.843750 635816.062500 104 107 123
314592.875000 131914.203125 635615.375000 106 110 125
315188.937500 131880.562500 635453.312500 105 108 124
315782.500000 131846.015625 635286.875000 110 114 130
316355.718750 131803.156250 635080.312500 117 123 138
316965.562500 131775.703125 634948.000000 106 113 126
317536.375000 131732.171875 634738.250000 97 103 115
318128.218750 131697.531250 634571.375000 95 101 113
318717.843750 131662.109375 634400.687500 94 100 112
319283.250000 131616.875000 634182.687500 93 99 111
319886.125000 131587.218750 634039.875000 90 95 107
320447.375000 131540.609375 633815.250000 97 100 111
321033.968750 131504.593750 633641.687500 108 110 121
321615.406250 131466.593750 633458.625000 111 111 121
322164.750000 131415.687500 633213.312500 113 112 120
322752.343750 131380.562500 633044.062500 114 113 120
323290.218750 131325.359375 632778.125000 113 111 117
323856.375000 131281.875000 632568.562500 111 110 115
324419.125000 131237.187500 632353.250000 110 110 115
324950.937500 131180.203125 632078.687500 110 110 115
325530.968750 131142.859375 631898.750000 110 109 114
326054.531250 131082.984375 631610.250000 110 108 115
326606.500000 131034.750000 631377.812500 109 107 114
327155.312500 130985.445312 631140.250000 107 103 111
327672.093750 130923.554688 630842.062500 107 101 110
328243.375000 130883.640625 630649.687500 110 104 112
328757.062500 130820.968750 630347.750000 109 103 112
329306.968750 130772.937500 630116.312500 108 103 113
329848.531250 130721.796875 629869.875000 114 109 120
330343.250000 130652.335938 629535.187500 121 115 127
330890.500000 130603.890625 629301.812500 118 114 125
331361.000000 130525.406250 628923.625000 117 114 124
331874.156250 130464.015625 628627.812500 119 116 126
332372.312500 130396.976562 628304.750000 112 110 120
332809.062500 130306.164062 627867.187500 113 112 120
333313.531250 130242.187500 627558.937500 112 112 118
333726.875000 130142.921875 627080.687500 103 104 109
334198.843750 130066.875000 626714.187500 106 106 112
334660.968750 129987.296875 626330.812500 112 111 120
335052.531250 129880.695312 625817.125000 115 113 125
335529.156250 129807.414062 625464.000000 117 114 128
335910.156250 129697.507812 624934.437500 118 113 127
336354.312500 129612.367188 624524.250000 120 114 129
336806.406250 129530.617188 624130.312500 120 114 128
337208.625000 129430.046875 623645.750000 116 111 124
337711.718750 129368.515625 623349.250000 119 113 124
338131.593750 129275.414062 622900.625000 123 119 128
338609.593750 129204.843750 622560.625000 123 121 128
339086.406250 129134.109375 622219.750000 120 119 126
339503.156250 129040.804688 621770.187500 118 118 125
340001.625000 128978.875000 621471.812500 120 121 130
340399.062500 128878.937500 620990.250000 122 124 136
340855.312500 128801.601562 620617.625000 119 122 136
341290.500000 128716.632812 620208.187500 116 120 137
341637.500000 128598.781250 619640.375000 115 120 139
342071.750000 128514.179688 619232.687500 114 119 138
342385.906250 128384.851562 618609.562500 120 124 141
342778.406250 128285.367188 618130.187500 147 150 168
343167.062500 128184.812500 617645.687500 180 185 204
343472.906250 128053.765625 617014.250000 196 202 221
343896.125000 127966.890625 616595.687500 201 211 231
344220.000000 127843.468750 616000.937500 194 206 226
344637.687500 127755.281250 615576.000000 180 192 214
345061.906250 127669.835938 615164.312500 169 184 208
345400.843750 127553.226562 614602.500000 162 179 204
345842.250000 127474.843750 614224.750000 160 176 202
346179.406250 127358.390625 613663.625000 155 172 198
346595.000000 127271.164062 613243.375000 139 156 185
347011.531250 127184.632812 612826.375000 136 153 183
347352.906250 127070.914062 612278.500000 146 163 192
347799.125000 126995.914062 611917.125000 149 167 195
348132.656250 126880.125000 611359.187500 153 172 201
348529.406250 126787.757812 610914.125000 159 176 207
348933.406250 126698.375000 610483.437500 162 180 212
349281.562500 126589.085938 609956.875000 170 187 221
349745.625000 126522.125000 609634.187500 178 196 232
350130.281250 126426.750000 609174.625000 178 198 237
350588.468750 126358.218750 608844.437500 175 195 235
351053.312500 126292.335938 608526.937500 182 201 238
351451.375000 126202.710938 608095.125000 189 209 241
351931.906250 126142.992188 607807.375000 193 214 243
352320.625000 126050.632812 607362.375000 202 220 247
352766.125000 125978.882812 607016.625000 210 227 251
353208.531250 125906.304688 606666.937500 213 231 253
353591.968750 125813.007812 606217.375000 213 231 251
354066.125000 125752.273438 605924.750000 212 230 247
354429.906250 125652.625000 605444.562500 219 237 249
354838.531250 125569.195312 605042.625000 229 245 254
355247.500000 125486.210938 604642.750000 231 244 253
355604.281250 125385.109375 604155.625000 235 246 252
356068.812500 125322.304688 603853.000000 242 252 255
356479.312500 125240.734375 603459.937500 244 254 255
356970.593750 125187.804688 603204.875000 249 255 255
357478.093750 125140.726562 602978.062500 251 255 255
357922.031250 125071.617188 602645.062500 251 255 255
358428.468750 125024.546875 602418.250000 252 255 255
358876.812500 124957.421875 602094.812500 252 254 255
359379.500000 124909.421875 601863.562500 252 252 255
359884.625000 124862.437500 601637.187500 253 253 255
360348.906250 124801.476562 601343.437500 253 255 255
360876.218750 124762.523438 601155.750000 249 255 255
361284.906250 124682.773438 600771.437500 244 255 255
361713.968750 124610.320312 600422.375000 242 255 255
362105.781250 124525.304688 600012.750000 244 255 255
362417.937500 124413.257812 599472.812500 245 255 255
362822.812500 124333.375000 599087.875000 246 255 253
363130.062500 124220.367188 598543.437500 246 255 254
363535.062500 124141.148438 598161.687500 246 255 255
363940.406250 124062.304688 597781.812500 245 254 253
364245.468750 123949.632812 597238.875000 247 253 254
364647.250000 123870.195312 596856.125000 248 251 252
364961.093750 123761.210938 596331.000000 252 255 255
365332.968750 123672.265625 595902.437500 255 255 255
365780.500000 123609.179688 595598.500000 235 237 238
366274.093750 123561.851562 595370.437500 163 163 165
243158.578125 131275.890625 629312.625000 165 153 164
243735.421875 131225.875000 629072.812500 219 211 224
244354.421875 131198.765625 628942.875000 248 244 255
245045.953125 131210.625000 628999.750000 208 209 232
245778.625000 131244.406250 629161.687500 168 174 200
246494.718750 131269.171875 629280.375000 170 178 206
247193.484375 131284.609375 629354.375000 157 169 198
247917.359375 131313.250000 629491.687500 148 160 188
248623.359375 131332.281250 629582.937500 140 152 177
249353.312500 131363.859375 629734.312500 131 143 164
250139.921875 131425.015625 630027.500000 126 138 156
250918.671875 131481.734375 630299.375000 130 140 156
251731.203125 131555.796875 630654.437500 133 140 155
252486.484375 131599.625000 630864.562500 135 143 156
253249.406250 131647.203125 631092.625000 138 145 159
254073.390625 131726.187500 631471.250000 138 144 160
254866.546875 131788.812500 631771.437500 134 140 156
255726.000000 131885.296875 632234.000000 134 137 154
256550.640625 131963.359375 632608.250000 137 138 156
257369.109375 132037.859375 632965.375000 141 142 160
258210.140625 132123.515625 633375.937500 143 143 161
258979.328125 132172.062500 633608.687500 143 142 160
259798.218750 132245.640625 633961.437500 143 142 160
260591.609375 132305.906250 634250.312500 142 141 157
261371.234375 132358.875000 634504.250000 141 142 157
262163.718750 132418.078125 634788.062500 138 140 156
262899.718750 132448.531250 634934.000000 139 143 158
263656.250000 132489.125000 635128.625000 141 147 162
264385.375000 132515.781250 635256.375000 136 143 159
265110.000000 132540.046875 635372.750000 132 141 158
265861.312500 132577.515625 635552.312500 132 144 160
266591.343750 132604.187500 635680.187500 134 144 162
267345.468750 132642.687500 635864.812500 135 141 164
268081.250000 132671.906250 636004.875000 134 139 163
268811.906250 132698.468750 636132.187500 135 140 161
269552.437500 132729.734375 636282.062500 135 141 161
270265.062500 132747.140625 636365.500000 134 140 159
271002.156250 132776.468750 636506.062500 133 140 156
271736.125000 132804.109375 636638.562500 134 141 155
272461.437500 132827.390625 636750.250000 136 141 155
273179.000000 132846.796875 636843.187500 134 138 151
273866.875000 132851.703125 636866.750000 132 137 148
274563.250000 132860.687500 636909.875000 130 136 146
275259.812500 132869.734375 636953.187500 123 128 137
275952.406250 132876.796875 636987.062500 120 124 132
276645.781250 132884.234375 637022.687500 122 125 133
277330.281250 132887.375000 637037.750000 122 124 131
278006.406250 132886.484375 637033.500000 119 120 126
278671.343750 132880.281250 637003.750000 116 118 123
279335.843750 132873.875000 636973.062500 116 118 123
280014.156250 132874.062500 636973.937500 116 118 123
280701.906250 132878.718750 636996.312500 118 119 124
281382.968750 132880.218750 637003.437500 117 117 123
282058.093750 132878.890625 636997.062500 109 109 115
282724.187500 132873.328125 636970.437500 108 107 112
283383.093750 132864.421875 636927.687500 109 107 112
284042.843750 132855.937500 636887.062500 104 103 108
284681.812500 132837.812500 636800.187500 103 102 107
285320.968750 132819.859375 636714.125000 108 106 111
285956.031250 132800.093750 636619.375000 110 108 112
286587.218750 132778.625000 636516.437500 111 108 111
287237.156250 132765.921875 636455.562500 118 113 117
287869.187500 132745.015625 636355.312500 131 126 130
288506.250000 132726.531250 636266.687500 140 135 139
289146.218750 132709.468750 636184.937500 144 139 142
289782.656250 132690.875000 636095.750000 146 143 144
290437.906250 132680.937500 636048.187500 144 142 144
291093.968750 132671.437500 636002.625000 137 134 137
291765.375000 132668.937500 635990.625000 137 135 136
292438.406250 132667.203125 635982.312500 135 134 136
293096.437500 132658.703125 635941.500000 133 131 134
293753.906250 132649.968750 635899.687500 137 134 137
294407.843750 132639.687500 635850.375000 141 136 139
295069.968750 132633.125000 635818.937500 142 135 140
295736.593750 132628.609375 635797.250000 144 137 144
296403.187500 132624.109375 635775.750000 149 144 153
297076.531250 132622.640625 635768.687500 151 148 157
297749.468750 132621.000000 635760.812500 155 153 164
298424.125000 132620.140625 635756.687500 146 146 158
299099.125000 132619.421875 635753.250000 126 130 141
299772.968750 132618.187500 635747.312500 122 125 136
300447.500000 132617.281250 635742.937500 131 135 147
301115.593750 132613.531250 635725.062500 128 134 143
301784.437500 132610.140625 635708.750000 121 128 136
302446.625000 132603.828125 635678.500000 126 134 141
303100.437500 132593.890625 635630.875000 123 131 137
303756.750000 132585.093750 635588.687500 122 129 134
304393.656250 132567.890625 635506.187500 122 128 136
305033.343750 132551.953125 635429.812500 118 124 133
305668.593750 132534.171875 635344.562500 115 122 130
306295.968750 132513.062500 635243.312500 121 125 137
306940.375000 132499.390625 635177.875000 121 123 138
307571.437500 132480.046875 635085.062500 112 118 134
308220.062500 132468.328125 635028.937500 110 122 137
308861.593750 132453.609375 634958.375000 113 126 142
309475.406250 132427.109375 634831.312500 138 150 166
310097.937500 132404.437500 634722.625000 152 163 179
310692.375000 132369.890625 634557.062500 125 134 151
311307.468750 132344.265625 634434.250000 114 121 138
311917.250000 132316.515625 634301.187500 115 121 139
312503.062500 132278.750000 634120.125000 116 120 139
313114.781250 132252.078125 633992.250000 120 123 140
313688.125000 132209.343750 633787.375000 113 116 133
314280.375000 132174.734375 633621.500000 110 113 130
314870.312500 132139.328125 633451.750000 110 114 131
315439.687500 132095.437500 633241.375000 107 113 129
316046.531250 132067.406250 633107.000000 103 109 125
316614.375000 132023.234375 632895.187500 99 106 122
317203.937500 131988.265625 632727.625000 100 107 123
317791.468750 131952.625000 632556.750000 101 108 123
318354.187500 131906.859375 632337.312500 98 105 120
318954.500000 131876.812500 632193.312500 98 105 121
319513.250000 131829.750000 631967.687500 103 109 124
320097.593750 131793.421875 631793.562500 105 108 123
320677.125000 131755.265625 631610.625000 104 106 119
321225.093750 131704.328125 631366.437500 107 107 117
321811.500000 131669.328125 631198.687500 109 109 117
322347.843750 131614.031250 630933.625000 108 110 117
322912.031250 131570.312500 630724.062500 111 114 121
323472.593750 131525.312500 630508.312500 115 118 124
324002.468750 131468.046875 630233.750000 114 117 124
324580.656250 131430.578125 630054.125000 111 114 121
325102.312500 131370.406250 629765.687500 110 110 119
325652.062500 131321.812500 629532.750000 108 108 118
326198.906250 131272.265625 629295.187500 106 106 115
326714.312500 131210.281250 628998.125000 105 103 113
327284.343750 131170.453125 628807.125000 105 103 114
327797.218750 131107.921875 628507.375000 103 101 112
328346.093750 131060.007812 628277.687500 105 103 117
328886.843750 131009.070312 628033.500000 110 108 123
329381.500000 130940.000000 627702.437500 107 104 120
329928.343750 130891.921875 627471.937500 108 107 122
330399.937500 130814.234375 627099.500000 112 112 127
330914.093750 130753.687500 626809.250000 110 109 125
331413.406250 130687.523438 626492.062500 110 110 125
331851.125000 130597.390625 626060.000000 111 111 124
332355.062500 130533.625000 625754.312500 110 109 120
332768.781250 130434.757812 625280.375000 109 108 118
333241.250000 130359.257812 624918.437500 112 112 122
333703.406250 130280.039062 624538.687500 111 110 123
334094.437500 130173.421875 624027.562500 110 108 122
334569.437500 130099.875000 623675.000000 112 110 124
334948.375000 129989.335938 623145.062500 111 108 123
335390.312500 129903.648438 622734.312500 110 106 122
335839.562500 129821.109375 622338.687500 112 108 124
336237.937500 129719.281250 621850.500000 116 112 127
336737.281250 129656.718750 621550.625000 119 116 128
337152.093750 129561.929688 621096.187500 118 115 127
337624.937500 129489.765625 620750.250000 116 114 125
338096.812500 129417.507812 620403.875000 114 114 124
338508.781250 129322.648438 619949.125000 109 110 121
339004.093750 129259.929688 619648.437500 110 113 125
339398.500000 129159.062500 619164.875000 119 123 135
339852.031250 129081.039062 618790.875000 116 122 136
340285.625000 128995.765625 618382.062500 113 118 137
340632.062500 128877.835938 617816.812500 116 121 141
341066.281250 128793.515625 617412.562500 122 129 148
341383.250000 128665.328125 616798.000000 135 140 159
341778.500000 128567.070312 616327.000000 151 156 174
342171.343750 128468.304688 615853.562500 161 168 186
342483.187500 128339.546875 615236.312500 174 181 199
342910.250000 128254.375000 614828.000000 210 217 237
343240.843750 128133.531250 614248.687500 218 228 249
343663.000000 128047.242188 613835.062500 182 193 217
344091.687500 127963.718750 613434.687500 164 177 203
344437.750000 127849.843750 612888.750000 161 177 204
344883.562500 127773.351562 612522.062500 156 174 203
345228.000000 127659.671875 611977.125000 153 172 203
345648.718750 127574.562500 611569.125000 148 168 200
346069.906250 127489.945312 611163.437500 147 171 204
346416.843750 127378.351562 610628.500000 158 184 216
346865.468750 127304.492188 610274.437500 165 192 223
347204.593750 127190.789062 609729.375000 166 192 223
347606.125000 127100.335938 609295.750000 175 201 232
348015.343750 127013.031250 608877.250000 189 215 244
348370.281250 126906.273438 608365.437500 191 216 245
348838.281250 126841.023438 608052.625000 196 221 250
349228.187500 126747.656250 607605.062500 209 235 255
349688.500000 126680.164062 607281.500000 211 237 255
350155.562500 126615.343750 606970.812500 210 234 254
350559.000000 126527.804688 606551.187500 206 226 252
351043.593750 126469.820312 606273.187500 205 223 250
351439.343750 126380.109375 605843.125000 213 231 255
351889.781250 126310.359375 605508.750000 220 238 255
352337.500000 126239.875000 605170.875000 223 241 255
352728.531250 126149.382812 604737.062500 226 244 255
353207.312500 126090.546875 604455.000000 231 248 255
353580.562500 125994.312500 603993.687500 237 253 255
353997.218750 125913.882812 603608.125000 242 255 255
354414.656250 125834.000000 603225.187500 244 255 254
354781.968750 125736.664062 602758.562500 246 255 255
355252.750000 125676.265625 602469.000000 246 254 255
355671.875000 125597.851562 602093.125000 245 253 253
356168.875000 125547.171875 601850.187500 247 252 252
356680.593750 125501.851562 601632.937500 248 252 253
357129.468750 125434.617188 601310.562500 244 249 253
357637.468750 125388.359375 601088.812500 243 247 254
358087.687500 125322.031250 600770.875000 245 247 255
358591.250000 125274.585938 600543.437500 249 249 255
359095.375000 125227.500000 600317.750000 253 253 255
359557.250000 125165.882812 600022.312500 254 255 255
360081.000000 125125.984375 599831.062500 249 255 255
360483.625000 125044.203125 599439.000000 242 255 255
360906.812500 124969.835938 599082.500000 240 255 255
361291.625000 124882.460938 598663.687500 241 255 255
361596.718750 124767.890625 598114.437500 243 255 255
361997.062500 124686.531250 597724.437500 244 255 254
362289.343750 124568.304688 597157.687500 244 255 254
362675.093750 124482.570312 596746.687500 244 255 254
363059.781250 124396.781250 596335.375000 243 254 252
363346.156250 124277.648438 595764.312500 246 254 254
363738.500000 124195.125000 595368.687500 246 251 251
364042.281250 124082.695312 594829.750000 251 254 254
364411.281250 123992.851562 594399.062500 255 255 255
364853.031250 123928.023438 594088.250000 226 228 229
365328.812500 123874.960938 593833.875000 147 147 150
239545.968750 132169.609375 630380.812500 140 141 152
242557.500000 131619.484375 627757.000000 166 155 168
243121.437500 131563.125000 627488.125000 224 217 232
243721.234375 131526.421875 627313.125000 214 212 230
244395.578125 131530.031250 627330.312500 182 183 206
245113.296875 131556.906250 627458.562500 170 176 202
245815.109375 131575.125000 627545.437500 165 173 201
246507.296875 131588.109375 627607.312500 154 165 193
247224.015625 131614.078125 627731.187500 149 162 188
247925.937500 131632.046875 627816.875000 137 149 173
248652.109375 131662.765625 627963.437500 124 137 157
249431.390625 131721.359375 628242.937500 126 139 155
250203.125000 131775.671875 628501.937500 134 146 160
251006.234375 131846.171875 628838.187500 138 147 160
251754.406250 131887.515625 629035.375000 138 144 156
252509.609375 131932.328125 629249.062500 134 140 153
253323.703125 132007.578125 629608.000000 130 136 151
254109.234375 132067.578125 629894.187500 131 137 153
254955.812500 132158.921875 630329.812500 134 140 156
255768.296875 132232.156250 630679.125000 137 140 159
256573.968750 132301.500000 631009.812500 135 138 157
257400.390625 132381.140625 631389.687500 137 139 158
258159.687500 132425.937500 631603.375000 142 142 163
258965.328125 132494.218750 631929.000000 139 140 160
259748.437500 132550.640625 632198.125000 129 130 147
260518.296875 132600.031250 632433.687500 133 134 151
261298.062500 132654.187500 632692.000000 141 143 159
262024.843750 132681.250000 632821.062500 141 143 158
262770.531250 132717.718750 632995.000000 139 143 158
263492.250000 132741.921875 633110.437500 138 144 158
264210.218750 132764.125000 633216.312500 139 146 160
264952.250000 132798.265625 633379.187500 139 149 162
265675.031250 132822.593750 633495.250000 138 148 163
266421.156250 132858.484375 633666.375000 136 143 163
267151.656250 132886.390625 633799.500000 133 142 161
267877.750000 132911.968750 633921.437500 133 143 161
268611.687500 132941.312500 634061.437500 134 144 161
269318.843750 132957.281250 634137.625000 135 144 160
270049.156250 132984.578125 634267.750000 136 144 159
270777.187500 133010.609375 634391.937500 137 145 158
271497.250000 133032.609375 634496.875000 137 145 158
272210.281250 133051.062500 634584.875000 134 142 154
272895.468750 133055.859375 634607.750000 133 140 151
273588.437500 133064.406250 634648.562500 136 143 153
274281.500000 133072.968750 634689.312500 136 143 152
274970.281250 133079.406250 634720.062500 132 138 147
275659.187500 133085.875000 634750.937500 125 130 140
276339.625000 133088.234375 634762.125000 119 124 133
277010.812500 133086.140625 634752.125000 118 121 129
277671.500000 133079.015625 634718.187500 118 122 130
278331.625000 133071.671875 634683.125000 118 122 130
279004.500000 133070.421875 634677.250000 115 118 126
279687.562500 133074.031250 634694.437500 111 114 122
280363.250000 133074.140625 634694.937500 108 111 120
281033.625000 133071.718750 634683.375000 107 108 116
281695.625000 133065.359375 634653.062500 107 107 115
282350.718750 133055.781250 634607.375000 102 102 109
283007.718750 133047.125000 634566.125000 96 95 101
283644.968750 133029.265625 634480.937500 93 92 98
284283.437500 133012.046875 634398.812500 90 89 95
284918.093750 132993.140625 634308.625000 88 87 92
285548.093750 132972.156250 634208.500000 97 95 99
286195.906250 132959.546875 634148.375000 113 111 113
286826.156250 132938.843750 634049.625000 120 118 120
287461.625000 132920.671875 633962.937500 128 126 129
288099.968750 132903.890625 633882.937500 138 135 137
288734.781250 132885.562500 633795.562500 143 141 141
289388.000000 132875.781250 633748.875000 140 140 139
290041.281250 132866.078125 633702.562500 134 134 132
290708.906250 132862.968750 633687.750000 130 131 128
291378.250000 132860.656250 633676.750000 125 127 124
292033.312500 132851.859375 633634.812500 122 124 120
292688.625000 132843.234375 633593.625000 124 124 122
293341.312500 132833.421875 633546.875000 129 124 124
294002.406250 132827.484375 633518.500000 126 116 118
294668.562500 132823.843750 633501.187500 127 117 120
295335.156250 132820.421875 633484.875000 136 130 134
296008.000000 132819.812500 633481.937500 137 133 137
296681.062500 132819.312500 633479.562500 137 134 140
297354.968750 132819.187500 633478.937500 140 140 148
298029.312500 132819.265625 633479.312500 146 148 155
298703.750000 132819.375000 633479.812500 151 153 161
299378.218750 132819.500000 633480.437500 138 141 148
300046.562500 132816.906250 633468.062500 136 139 146
300714.281250 132814.046875 633454.437500 141 144 149
301375.250000 132808.234375 633426.750000 130 133 139
302028.906250 132799.234375 633383.750000 129 132 137
302684.906250 132791.296875 633345.937500 130 133 137
303322.187500 132775.203125 633269.187500 126 128 134
303961.812500 132760.218750 633197.687500 122 124 131
304596.625000 132743.187500 633116.437500 122 124 130
305223.156250 132722.625000 633018.375000 124 126 135
305865.406250 132708.984375 632953.312500 129 131 143
306493.843750 132689.421875 632860.062500 131 135 147
307139.625000 132677.437500 632802.875000 132 139 151
307777.531250 132662.109375 632729.750000 138 147 161
308387.250000 132634.718750 632599.125000 140 148 163
309005.687500 132611.203125 632486.937500 136 142 158
309595.156250 132575.375000 632316.125000 133 139 155
310205.750000 132548.718750 632189.000000 130 134 149
310811.375000 132520.078125 632052.375000 134 137 152
311393.437500 132481.531250 631868.500000 138 140 155
312002.562500 132454.640625 631740.250000 130 130 144
312572.656250 132411.328125 631533.625000 122 120 134
313161.437500 132376.109375 631365.687500 119 117 132
313747.968750 132340.062500 631193.812500 123 122 136
314313.687500 132295.453125 630981.000000 129 129 144
314917.468750 132266.984375 630845.250000 126 126 141
315481.937500 132222.187500 630631.562500 122 124 138
316068.500000 132186.796875 630462.812500 127 130 144
316652.875000 132150.656250 630290.375000 138 139 154
317212.000000 132104.156250 630068.562500 146 147 162
317808.937500 132073.562500 629922.687500 139 140 156
318364.281250 132025.843750 629695.062500 129 130 146
318945.375000 131988.984375 629519.312500 124 125 139
319522.218750 131950.515625 629335.875000 124 124 135
320067.812500 131899.359375 629091.812500 126 126 134
320652.250000 131864.375000 628924.937500 127 128 134
321186.562500 131808.953125 628660.687500 124 127 133
321748.531250 131765.093750 628451.437500 121 124 130
322306.750000 131719.875000 628235.812500 118 120 127
322834.187500 131662.312500 627961.250000 113 116 122
323409.781250 131624.578125 627781.312500 109 112 119
323929.062500 131564.125000 627492.937500 107 109 117
324476.281250 131515.250000 627259.812500 104 105 115
325021.093750 131465.578125 627023.000000 103 104 114
325534.750000 131403.562500 626727.125000 107 105 116
326103.093750 131363.828125 626537.625000 105 104 116
326615.187500 131301.625000 626241.000000 109 107 121
327163.031250 131254.031250 626014.000000 113 111 126
327703.437500 131203.640625 625773.625000 108 108 124
328198.406250 131135.312500 625447.750000 107 106 122
328744.750000 131087.750000 625220.875000 108 108 125
329217.843750 131011.226562 624855.937500 107 109 128
329733.562500 130951.937500 624573.125000 105 106 125
330234.593750 130887.062500 624263.687500 108 109 128
330674.500000 130798.265625 623840.187500 111 112 129
331178.562500 130735.164062 623539.250000 111 110 125
331593.718750 130637.273438 623072.375000 111 110 124
332066.937500 130562.625000 622716.312500 113 112 128
332529.375000 130484.023438 622341.437500 113 112 128
332920.968750 130378.000000 621835.750000 107 106 123
333394.906250 130304.570312 621485.500000 104 103 119
333772.187500 130193.734375 620956.875000 104 102 118
334211.968750 130107.671875 620546.437500 107 103 121
334657.500000 130024.187500 620148.250000 110 107 124
335051.093750 129920.875000 619655.500000 111 109 123
335545.343750 129856.929688 619350.500000 117 115 130
335953.062500 129759.828125 618887.375000 118 115 132
336419.500000 129685.718750 618533.937500 116 115 130
336884.812500 129611.476562 618179.812500 124 125 140
337289.312500 129514.179688 617715.750000 120 123 136
337779.187500 129449.960938 617409.500000 112 115 130
338168.062500 129347.382812 616920.250000 116 121 139
338617.031250 129268.125000 616542.250000 114 121 138
339048.125000 129182.382812 616133.250000 115 122 141
339393.250000 129064.257812 615569.875000 124 130 151
339827.281250 128980.343750 615169.687500 131 138 157
340147.406250 128853.601562 614565.187500 142 150 168
340545.437500 128756.804688 614103.500000 157 164 181
340943.218750 128660.273438 613643.062500 164 172 188
341263.125000 128534.789062 613044.625000 170 178 195
341696.156250 128452.304688 612651.187500 194 203 225
342036.500000 128335.359375 612093.437500 227 236 255
342464.906250 128251.843750 611695.062500 226 236 250
342900.218750 128171.218750 611310.562500 195 208 228
343255.843750 128061.179688 610785.687500 170 185 213
343707.625000 127987.351562 610433.562500 164 180 210
344061.718750 127877.500000 609909.625000 167 187 219
344489.312500 127795.328125 609517.750000 179 202 236
344916.437500 127713.289062 609126.437500 185 212 246
345270.750000 127604.648438 608608.312500 184 214 247
345722.281250 127532.273438 608263.125000 189 220 251
346067.781250 127421.140625 607733.062500 192 225 252
346474.687500 127332.976562 607312.562500 193 225 250
346888.750000 127247.773438 606906.187500 199 230 255
347249.625000 127143.406250 606408.437500 204 235 255
347720.031250 127079.468750 606103.437500 206 237 255
348112.781250 126987.429688 605664.437500 215 244 254
348573.500000 126920.476562 605345.125000 226 254 254
349040.125000 126855.929688 605037.312500 229 253 255
349444.718750 126769.101562 604623.187500 223 241 255
349929.437500 126711.617188 604349.000000 218 233 252
350326.875000 126622.789062 603925.312500 223 238 253
350777.687500 126553.546875 603595.062500 231 246 255
351226.562500 126483.859375 603262.750000 233 249 255
351620.656250 126394.742188 602837.687500 236 251 255
352101.562500 126337.093750 602562.687500 241 254 255
352480.656250 126243.187500 602114.812500 244 255 255
352902.000000 126164.726562 601740.625000 242 253 254
353325.437500 126087.296875 601371.312500 237 248 250
353701.375000 125993.234375 600922.687500 239 249 252
354177.875000 125935.257812 600646.187500 239 248 253
354605.437500 125860.125000 600287.812500 225 234 241
355108.156250 125811.890625 600057.750000 216 225 233
355624.125000 125768.515625 599850.875000 214 223 232
356077.968750 125703.359375 599540.125000 212 220 231
356587.375000 125658.023438 599323.875000 214 222 233
357039.875000 125592.835938 599013.000000 216 223 236
357545.437500 125546.507812 598792.000000 222 228 243
358049.406250 125499.781250 598569.125000 231 236 250
358508.968750 125437.679688 598273.000000 232 238 250
359028.187500 125396.640625 598077.250000 230 240 249
359423.531250 125312.562500 597676.250000 232 246 252
359840.250000 125236.210938 597312.062500 234 252 255
360217.250000 125146.335938 596883.437500 237 254 255
360514.937500 125029.273438 596325.062500 241 255 255
360910.562500 124946.523438 595930.437500 242 255 255
361184.656250 124822.062500 595336.812500 243 255 255
361546.281250 124728.242188 594889.312500 244 255 254
361904.593750 124633.601562 594437.937500 243 253 252
362166.500000 124506.148438 593830.062500 246 254 254
362546.093750 124419.531250 593416.937500 246 252 252
362837.031250 124302.843750 592860.375000 249 253 252
363203.437500 124212.375000 592428.875000 255 255 255
363639.156250 124145.875000 592111.750000 225 227 227
364092.593750 124085.648438 591824.500000 139 139 140
238793.343750 132795.046875 630165.125000 135 134 148
239238.109375 132669.781250 629570.625000 145 144 158
242196.437500 132090.656250 626822.500000 156 150 166
242752.968750 132030.531250 626537.187500 219 217 234
243341.843750 131988.265625 626336.562500 199 200 219
244006.687500 131987.312500 626332.125000 164 168 190
244716.093750 132010.421875 626441.750000 173 181 206
245409.750000 132024.921875 626510.562500 164 173 203
246098.031250 132036.468750 626565.312500 153 164 193
246810.328125 132060.796875 626680.812500 151 162 189
247509.359375 132077.906250 626762.000000 138 149 174
248233.000000 132108.031250 626905.000000 127 138 159
249008.484375 132165.515625 627177.750000 130 140 158
249777.078125 132219.031250 627431.750000 130 139 154
250574.531250 132287.515625 627756.625000 136 144 157
251317.000000 132326.671875 627942.500000 137 144 157
252065.812500 132368.953125 628143.125000 139 145 160
252872.687500 132441.421875 628487.062500 146 152 168
253653.203125 132499.734375 628763.750000 146 153 171
254490.578125 132587.375000 629179.625000 142 149 168
255294.093750 132656.953125 629509.812500 145 152 170
256089.921875 132722.187500 629819.375000 152 157 177
256905.046875 132797.062500 630174.625000 151 156 177
257656.781250 132838.843750 630372.937500 145 149 170
258451.765625 132902.656250 630675.750000 142 144 165
259226.390625 132955.703125 630927.500000 139 141 161
259988.125000 133001.875000 631146.625000 141 143 163
260757.250000 133051.593750 631382.500000 141 144 161
261476.453125 133075.640625 631496.625000 139 141 157
262213.562500 133108.640625 631653.250000 142 145 160
262929.968750 133131.000000 631759.375000 143 148 162
263643.375000 133151.734375 631857.750000 143 150 163
264378.281250 133183.203125 632007.062500 145 152 164
265095.281250 133205.500000 632112.875000 144 153 166
265835.656250 133239.390625 632273.750000 140 151 166
266562.937500 133266.578125 632402.750000 135 149 162
267286.468750 133291.765625 632522.187500 133 146 161
268016.406250 133320.000000 632656.250000 135 148 162
268720.000000 133335.031250 632727.562500 139 151 165
269445.906250 133361.031250 632850.875000 143 153 168
270169.906250 133385.953125 632969.187500 146 157 170
270886.562500 133407.125000 633069.687500 144 155 167
271596.531250 133424.921875 633154.125000 140 151 162
272279.906250 133429.593750 633176.312500 135 144 155
272970.968750 133438.000000 633216.187500 131 139 150
273662.250000 133446.468750 633256.375000 135 144 154
274349.281250 133452.843750 633286.625000 137 146 155
275035.875000 133458.953125 633315.625000 133 143 151
275714.031250 133460.968750 633325.125000 130 139 148
276382.093750 133458.078125 633311.437500 128 135 147
277039.843750 133450.250000 633274.312500 124 130 143
277696.687500 133442.031250 633235.312500 120 126 138
278365.593750 133439.609375 633223.812500 117 123 136
279045.187500 133442.328125 633236.687500 117 123 135
279716.843750 133441.250000 633231.625000 116 123 133
280383.781250 133437.921875 633215.812500 108 115 125
281042.875000 133430.890625 633182.437500 104 111 121
281695.218750 133420.687500 633134.062500 104 110 119
282350.187500 133411.796875 633091.812500 104 107 115
282986.406250 133394.078125 633007.750000 104 106 115
283624.468750 133377.328125 632928.250000 104 107 114
284259.031250 133359.015625 632841.375000 103 105 112
284888.718750 133338.500000 632744.062500 110 108 116
285535.406250 133326.031250 632684.812500 119 117 122
286164.656250 133305.500000 632587.375000 116 115 120
286798.812500 133287.328125 632501.187500 120 120 124
287435.625000 133270.484375 632421.250000 128 126 130
288069.156250 133252.203125 632334.500000 130 129 133
288721.031250 133242.468750 632288.312500 132 131 134
289372.312500 133232.500000 632240.937500 123 122 125
290037.062500 133228.765625 632223.250000 119 119 120
290703.562500 133225.859375 632209.437500 114 116 116
291356.468750 133216.750000 632166.250000 106 108 108
292010.281250 133208.078125 632125.125000 106 107 106
292662.093750 133198.562500 632079.937500 115 110 110
293322.187500 133192.843750 632052.812500 122 113 113
293987.843750 133189.656250 632037.687500 124 115 114
294654.312500 133186.859375 632024.437500 130 123 123
295326.812500 133186.796875 632024.125000 145 139 139
296000.250000 133187.171875 632025.875000 145 141 140
296674.093750 133187.703125 632028.437500 156 152 154
297348.437500 133188.468750 632032.062500 187 184 187
298023.687500 133189.625000 632037.562500 190 187 190
298698.437500 133190.562500 632042.000000 152 150 153
299367.812500 133189.109375 632035.062500 141 139 143
300035.531250 133186.906250 632024.687500 155 153 157
300696.687500 133181.828125 632000.500000 131 129 133
301351.687500 133174.046875 631963.625000 126 124 128
302008.406250 133167.046875 631930.375000 132 130 135
302647.562500 133152.375000 631860.750000 121 120 124
303288.250000 133138.421875 631794.562500 113 111 116
303923.906250 133122.328125 631718.125000 117 115 120
304551.750000 133102.890625 631625.937500 121 120 125
305194.218750 133089.921875 631564.375000 125 127 132
305822.875000 133070.984375 631474.562500 133 136 143
306468.062500 133059.328125 631419.250000 131 135 143
307104.968750 133044.125000 631347.062500 134 140 150
307713.875000 133016.890625 631217.812500 138 145 156
308331.156250 132993.375000 631106.250000 138 142 154
308919.468750 132957.515625 630936.062500 142 146 156
309528.562500 132930.718750 630808.937500 143 144 155
310132.968750 132902.031250 630672.812500 140 139 150
310714.468750 132863.671875 630490.750000 140 139 149
311323.156250 132837.093750 630364.625000 139 136 147
311892.781250 132793.968750 630160.000000 120 117 127
312480.593750 132758.765625 629993.000000 123 120 129
313065.750000 132722.609375 629821.312500 139 136 146
313630.312500 132677.875000 629609.062500 133 130 140
314232.812500 132649.359375 629473.750000 127 123 134
314795.406250 132604.140625 629259.187500 130 127 138
315379.968750 132568.359375 629089.375000 134 132 142
315962.031250 132531.687500 628915.312500 134 131 141
316518.718750 132484.531250 628691.562500 141 138 149
317113.406250 132453.437500 628544.062500 140 137 149
317666.031250 132404.968750 628314.000000 134 131 144
318244.812500 132367.578125 628136.562500 137 136 146
318819.375000 132328.593750 627951.562500 142 142 148
319362.562500 132276.765625 627705.625000 142 143 147
319945.093750 132241.421875 627537.937500 140 141 145
320477.468750 132185.531250 627272.750000 136 139 142
321037.843750 132141.406250 627063.312500 129 133 136
321594.375000 132095.875000 626847.250000 123 126 130
322119.500000 132037.671875 626571.125000 120 123 128
322692.750000 131999.390625 626389.375000 120 123 127
323209.531250 131938.218750 626099.125000 121 124 129
323754.968750 131888.968750 625865.437500 120 123 130
324298.062500 131838.968750 625628.125000 122 124 133
324809.937500 131776.500000 625331.750000 127 128 138
325376.656250 131736.500000 625141.937500 124 124 136
325887.906250 131674.250000 624846.500000 124 124 137
326435.093750 131626.750000 624621.125000 122 121 135
326975.218750 131576.593750 624383.125000 116 115 130
327470.250000 131508.531250 624060.125000 124 122 140
328016.312500 131461.203125 623835.500000 122 122 141
328490.562500 131385.343750 623475.500000 109 110 130
329007.500000 131326.828125 623197.812500 104 105 125
329510.031250 131262.812500 622894.000000 110 112 132
329952.000000 131174.968750 622477.187500 107 110 129
330457.031250 131112.500000 622180.750000 101 102 122
330873.875000 131015.359375 621719.750000 108 109 129
331347.906250 130941.203125 621367.875000 115 116 136
331810.718750 130862.929688 620996.437500 114 114 134
332203.250000 130757.289062 620495.187500 111 112 130
332677.187500 130684.062500 620147.625000 112 113 129
333053.781250 130572.945312 619620.375000 112 112 127
333492.218750 130486.476562 619210.062500 114 112 128
333935.218750 130402.125000 618809.750000 117 115 132
334325.093750 130297.406250 618312.812500 115 114 130
334815.625000 130232.250000 618003.625000 112 110 129
335218.312500 130133.242188 617533.812500 116 114 134
335680.375000 130057.632812 617175.000000 118 119 139
336141.218750 129981.843750 616815.375000 114 114 135
336540.500000 129882.593750 616344.375000 114 114 136
337026.312500 129817.062500 616033.375000 121 124 144
337411.843750 129713.226562 615540.625000 123 128 149
337858.593750 129633.281250 615161.312500 114 120 141
338289.281250 129547.507812 614754.250000 116 122 144
338635.250000 129429.671875 614195.062500 128 134 156
339070.531250 129346.367188 613799.750000 130 139 159
339394.781250 129221.109375 613205.375000 148 158 176
339795.937500 129125.546875 612751.875000 167 178 194
340198.312500 129030.820312 612302.375000 164 176 190
340525.812500 128908.117188 611720.125000 153 166 182
340964.718750 128827.968750 611339.750000 167 181 200
341313.375000 128714.093750 610799.375000 198 213 230
341747.125000 128632.679688 610413.000000 215 231 243
342187.125000 128553.914062 610039.250000 202 220 236
342549.687500 128446.429688 609529.187500 183 203 225
343005.562500 128374.257812 609186.750000 186 205 227
343365.875000 128266.664062 608676.125000 195 216 239
343797.968750 128186.234375 608294.500000 206 229 252
344228.531250 128105.554688 607911.625000 209 233 255
344586.406250 127998.164062 607402.000000 207 231 254
345038.781250 127926.218750 607060.562500 208 232 253
345386.156250 127815.679688 606536.062500 216 240 255
345794.625000 127728.117188 606120.500000 219 243 255
346209.187500 127643.132812 605717.250000 215 239 253
346570.031250 127538.695312 605221.625000 219 242 253
347038.906250 127474.320312 604916.187500 223 247 255
347428.656250 127381.179688 604474.187500 222 247 255
347886.218750 127313.210938 604151.625000 225 247 255
348348.687500 127247.273438 603838.750000 227 247 255
348748.093750 127158.585938 603417.875000 228 248 255
349228.500000 127099.695312 603138.437500 236 253 255
349620.812500 127009.031250 602708.187500 242 255 255
350067.468750 126938.406250 602373.000000 243 255 255
350513.375000 126867.750000 602037.750000 241 254 255
350905.031250 126777.765625 601610.750000 243 255 255
351385.000000 126719.960938 601336.437500 247 255 255
351763.968750 126626.007812 600890.562500 246 255 255
352184.968750 126547.492188 600518.000000 244 254 253
352609.218750 126470.429688 600152.312500 245 253 253
352988.000000 126377.367188 599710.687500 249 255 255
353467.218750 126320.523438 599440.937500 248 255 255
353898.625000 126246.851562 599091.312500 232 241 245
354403.906250 126199.726562 598867.687500 225 234 242
354921.656250 126157.218750 598666.000000 228 237 247
355377.468750 126092.882812 598360.687500 220 230 240
355887.156250 126047.851562 598147.000000 202 211 225
356341.156250 125983.312500 597840.750000 179 189 204
356848.656250 125937.867188 597625.062500 170 179 196
357353.437500 125891.625000 597405.625000 186 194 215
357812.000000 125829.296875 597109.875000 212 220 240
358328.281250 125787.460938 596911.312500 225 235 251
358719.625000 125701.984375 596505.687500 224 237 248
359132.906250 125624.484375 596137.937500 227 242 250
359506.062500 125533.242188 595705.000000 235 250 255
359800.343750 125414.835938 595143.125000 240 253 255
360193.906250 125331.382812 594747.062500 242 254 255
360457.812500 125203.187500 594138.750000 242 254 255
360805.093750 125104.359375 593669.750000 244 255 255
361147.218750 125004.093750 593193.937500 246 255 255
361393.375000 124871.007812 592562.437500 248 255 255
361763.906250 124781.289062 592136.687500 246 252 251
362046.437500 124661.578125 591568.562500 249 252 252
362411.625000 124570.703125 591137.375000 255 255 255
362844.062500 124503.218750 590817.125000 230 231 230
238344.609375 133214.906250 628980.937500 159 156 171
238778.062500 133083.406250 628360.000000 150 149 166
241671.171875 132469.843750 625463.125000 159 160 179
242217.062500 132404.390625 625154.000000 229 233 248
242789.468750 132353.734375 624914.875000 219 224 243
243439.765625 132345.703125 624876.937500 169 178 201
244135.375000 132362.265625 624955.187500 165 175 201
244814.406250 132369.796875 624990.687500 165 174 205
245494.390625 132377.796875 625028.437500 152 163 196
246195.906250 132397.328125 625120.687500 148 156 188
246887.390625 132411.375000 625187.000000 149 153 185
247603.500000 132438.515625 625315.187500 136 141 168
248367.750000 132491.187500 625563.875000 127 132 154
249127.281250 132541.078125 625799.437500 138 143 162
249911.312500 132603.703125 626095.125000 142 147 166
250642.703125 132638.125000 626257.687500 145 150 169
251380.125000 132675.562500 626434.375000 150 156 174
252173.296875 132742.140625 626748.812500 152 159 177
252944.296875 132796.734375 627006.500000 152 159 180
253766.531250 132877.859375 627389.562500 152 160 181
254556.312500 132941.609375 627690.562500 152 158 182
255338.093750 133000.859375 627970.312500 149 157 181
256137.093750 133068.750000 628290.875000 149 157 182
256878.234375 133106.312500 628468.187500 149 155 180
257658.093750 133163.687500 628739.062500 143 148 171
258420.328125 133211.656250 628965.625000 139 143 165
259170.093750 133252.984375 629160.750000 140 144 165
259924.531250 133296.500000 629366.187500 139 143 162
260633.546875 133316.562500 629460.937500 133 137 155
261359.140625 133344.968750 629595.062500 131 135 152
262068.328125 133364.890625 629689.062500 133 139 154
262775.406250 133383.625000 629777.562500 140 147 162
263500.500000 133411.406250 629908.687500 138 144 159
264209.312500 133430.812500 630000.312500 135 142 157
264941.000000 133461.640625 630145.875000 144 154 168
265662.937500 133487.406250 630267.562500 142 156 170
266381.750000 133511.484375 630381.250000 142 154 168
267104.593750 133537.468750 630503.937500 146 156 171
267802.187500 133550.703125 630566.437500 147 158 173
268520.125000 133574.015625 630676.500000 148 160 174
269237.093750 133596.734375 630783.750000 151 162 177
269947.406250 133616.031250 630874.875000 150 161 176
270650.875000 133631.859375 630949.625000 149 159 175
271330.125000 133635.671875 630967.625000 143 152 167
272016.593750 133643.015625 631002.312500 131 141 154
272704.468750 133651.031250 631040.125000 135 145 157
273388.000000 133656.859375 631067.625000 139 149 162
274069.781250 133661.812500 631091.062500 137 147 159
274743.312500 133662.734375 631095.375000 137 147 159
275405.812500 133658.281250 631074.375000 139 146 162
276058.906250 133649.312500 631032.062500 135 142 158
276711.062500 133639.937500 630987.750000 129 136 152
277374.156250 133635.875000 630968.562500 128 135 150
278048.781250 133637.359375 630975.562500 131 139 151
278714.718750 133634.687500 630962.937500 131 140 151
279376.562500 133630.062500 630941.125000 124 134 143
280031.375000 133622.109375 630903.562500 121 131 140
280679.875000 133611.171875 630851.937500 122 131 140
281332.250000 133602.156250 630809.375000 118 127 136
281966.625000 133584.640625 630726.625000 113 119 128
282603.250000 133568.265625 630649.312500 115 119 128
283236.593750 133550.437500 630565.125000 119 121 130
283864.875000 133530.296875 630470.062500 116 118 125
284509.718750 133518.031250 630412.125000 114 115 122
285137.218750 133497.687500 630316.125000 123 122 130
285769.406250 133479.640625 630230.937500 126 125 132
286404.031250 133462.828125 630151.500000 126 125 131
287035.937500 133444.812500 630066.437500 125 125 132
287686.125000 133435.359375 630021.875000 119 119 126
288335.031250 133425.375000 629974.687500 114 114 121
288996.562500 133421.250000 629955.250000 108 109 117
289660.187500 133418.109375 629940.375000 101 103 109
290311.562500 133409.359375 629899.062500 91 92 100
290964.593750 133401.406250 629861.500000 88 89 95
291616.531250 133393.000000 629821.812500 94 92 94
292276.062500 133388.078125 629798.562500 104 98 98
292941.656250 133385.953125 629788.562500 113 106 104
293609.625000 133384.921875 629783.625000 122 114 112
294282.906250 133386.281250 629790.125000 137 128 125
294958.687500 133388.781250 629801.875000 144 135 132
295633.500000 133390.828125 629811.562500 149 140 137
296309.250000 133393.281250 629823.125000 162 153 150
296987.593750 133396.906250 629840.250000 158 149 146
297664.156250 133399.703125 629853.500000 150 141 140
298337.218750 133400.921875 629859.187500 143 133 135
299006.906250 133400.640625 629857.875000 131 125 127
299670.218750 133397.500000 629843.125000 128 122 124
300329.281250 133392.500000 629819.500000 127 121 123
300988.250000 133387.484375 629795.812500 124 118 120
301632.281250 133375.890625 629741.062500 122 116 118
302276.562500 133364.453125 629687.062500 118 114 115
302915.687500 133350.781250 629622.500000 115 111 113
303548.062500 133334.234375 629544.312500 114 110 110
304192.343750 133322.953125 629491.062500 127 124 123
304823.968750 133306.187500 629411.937500 149 147 148
305470.406250 133295.984375 629363.750000 148 151 152
306107.812500 133281.875000 629297.125000 150 155 158
306717.937500 133255.984375 629174.875000 156 161 165
307334.875000 133233.140625 629067.062500 157 161 163
307923.781250 133198.281250 628902.500000 164 165 169
308532.687500 133172.203125 628779.312500 151 152 155
