ply
		format ascii 1.0
		element vertex 11615
		property float x
		property float y
		property float z
		property uchar red
		property uchar green
		property uchar blue
		end_header
340664.750000 138749.796875 689775.187500 139 146 165
341437.906250 138765.687500 689854.125000 139 146 165
342203.031250 138778.218750 689916.500000 141 147 167
342954.093750 138785.031250 689950.312500 143 148 168
343697.125000 138788.562500 689967.875000 145 151 170
344423.875000 138785.515625 689952.687500 146 152 172
345129.812500 138774.125000 689896.062500 145 151 171
345832.062500 138761.281250 689832.250000 143 149 169
346523.250000 138744.078125 689746.750000 143 148 168
347207.875000 138724.312500 689648.500000 143 149 169
347908.156250 138710.890625 689581.687500 143 150 169
348578.375000 138685.562500 689455.812500 143 151 167
349255.312500 138663.000000 689343.625000 141 148 164
349925.593750 138637.890625 689218.875000 140 147 161
350581.312500 138607.140625 689065.937500 139 146 159
351263.281250 138586.875000 688965.187500 136 141 156
351912.531250 138553.796875 688800.812500 138 141 157
352581.593750 138528.656250 688675.812500 142 145 161
353240.875000 138499.765625 688532.187500 142 145 161
353868.562500 138458.656250 688327.812500 144 146 162
354523.093750 138428.187500 688176.312500 150 151 165
355125.125000 138377.390625 687923.812500 155 156 169
355751.968750 138336.453125 687720.250000 154 156 169
356367.781250 138291.390625 687496.250000 150 153 165
356946.031250 138231.984375 687200.937500 174 178 187
357570.625000 138190.718750 686995.750000 198 203 211
358133.156250 138125.687500 686672.500000 181 185 194
358734.906250 138076.031250 686425.562500 160 164 173
359325.562500 138022.281250 686158.437500 161 165 175
359864.656250 137949.000000 685794.125000 159 161 175
360459.562500 137897.375000 685537.437500 146 147 162
360971.406250 137814.250000 685124.187500 137 135 152
361526.843750 137748.062500 684795.125000 132 130 148
362072.531250 137678.421875 684449.000000 131 131 150
362563.593750 137588.359375 684001.187500 133 136 153
363132.250000 137528.015625 683701.250000 129 134 149
363613.343750 137434.828125 683238.000000 127 131 143
364152.968750 137364.093750 682886.312500 132 132 144
364682.593750 137289.890625 682517.375000 135 134 147
365141.187500 137189.281250 682017.250000 137 133 147
365681.187500 137119.578125 681670.812500 137 131 145
366115.562500 137010.656250 681129.250000 137 132 145
366612.593750 136925.531250 680706.125000 139 133 147
367102.437500 136838.093750 680271.375000 138 132 147
367521.218750 136724.546875 679706.937500 135 132 147
368041.468750 136649.125000 679331.937500 134 133 149
368456.312500 136534.953125 678764.312500 131 132 149
368945.312500 136448.625000 678335.250000 130 131 149
369430.250000 136361.156250 677900.375000 130 133 150
369835.218750 136244.562500 677320.687500 128 133 149
370342.343750 136165.984375 676930.062500 130 135 153
370739.625000 136047.390625 676340.562500 133 134 154
371213.250000 135957.234375 675892.312500 135 136 154
371685.875000 135867.062500 675444.000000 143 142 160
372082.062500 135749.328125 674858.750000 143 141 160
372587.312500 135671.781250 674473.250000 137 134 152
372980.906250 135553.953125 673887.437500 133 132 148
373447.187500 135462.937500 673435.000000 134 135 151
373915.812500 135373.109375 672988.437500 136 137 156
374313.875000 135258.156250 672416.937500 138 140 160
374823.812500 135183.968750 672048.125000 138 141 165
375235.593750 135074.718750 671505.062500 133 138 164
375724.875000 134993.750000 671102.562500 129 135 161
376215.468750 134913.562500 670703.875000 131 138 163
376627.468750 134805.531250 670166.812500 139 145 168
377137.406250 134732.906250 669805.750000 151 155 177
377547.500000 134624.953125 669269.062500 158 162 180
378033.000000 134544.234375 668867.812500 160 162 177
378518.437500 134463.812500 668467.937500 161 161 175
378928.218750 134356.859375 667936.250000 174 172 186
379437.218750 134285.421875 667581.125000 184 181 194
379844.906250 134178.453125 667049.312500 177 174 188
380326.125000 134097.828125 666648.500000 169 167 183
380806.625000 134017.234375 666247.875000 180 180 197
381213.343750 133911.031250 665719.875000 187 188 207
381720.687500 133840.500000 665369.250000 170 171 195
382122.750000 133733.390625 664836.750000 153 154 181
382598.312500 133652.343750 664433.875000 152 154 182
383068.031250 133569.562500 664022.312500 156 161 189
383456.781250 133458.906250 663472.250000 153 161 190
383946.937500 133383.875000 663099.250000 152 164 193
384323.625000 133269.781250 662532.062500 155 169 197
384773.250000 133181.359375 662092.437500 153 169 196
385225.656250 133094.218750 661659.187500 160 180 208
385608.093750 132983.250000 661107.562500 169 191 221
386105.500000 132912.265625 660754.687500 168 192 222
386502.687500 132807.125000 660232.000000 175 201 230
386967.125000 132725.406250 659825.750000 184 211 240
387448.625000 132649.843750 659450.062500 190 217 244
387881.281250 132557.843750 658992.750000 197 223 249
388423.093750 132503.437500 658722.250000 206 232 254
388899.625000 132426.984375 658342.187500 215 242 255
389442.156250 132373.234375 658074.937500 222 247 255
389990.500000 132321.656250 657818.562500 222 246 255
390477.000000 132249.312500 657458.937500 224 246 255
391031.343750 132200.171875 657214.625000 229 250 255
391499.000000 132121.953125 656825.750000 227 250 255
392014.468750 132060.109375 656518.312500 224 247 254
392522.437500 131995.968750 656199.437500 226 249 253
392978.687500 131914.703125 655795.437500 233 255 255
393519.062500 131861.890625 655532.937500 238 255 255
393934.843750 131767.609375 655064.187500 241 255 255
394364.156250 131678.171875 654619.562500 244 255 254
394811.656250 131595.125000 654206.687500 246 255 254
395260.937500 131512.953125 653798.187500 248 255 254
395843.218750 131475.250000 653610.750000 249 255 255
396417.531250 131435.015625 653410.750000 253 255 255
397055.187500 131415.921875 653315.812500 255 255 255
397717.781250 131405.109375 653262.062500 253 255 255
398225.937500 131343.390625 652955.250000 253 254 255
398715.812500 131275.890625 652619.687500 254 255 255
399745.312500 131385.984375 653167.000000 253 253 253
400844.906250 131518.687500 653826.687500 255 255 252
402688.343750 131894.562500 655695.312500 255 255 255
405550.656250 132602.265625 659213.625000 245 236 238
408375.218750 133295.218750 662658.500000 177 157 163
248066.218750 145002.765625 717067.000000 136 135 152
250143.984375 144880.171875 716460.750000 136 135 149
250538.234375 144667.531250 715409.250000 135 134 148
252737.718750 140802.796875 696297.375000 149 130 130
252588.328125 140308.187500 693851.375000 222 204 202
252186.734375 139676.750000 690728.875000 255 245 244
252171.781250 139262.531250 688680.437500 252 239 238
252087.984375 138812.796875 686456.437500 253 246 244
252384.734375 138574.593750 685278.500000 255 255 255
252856.984375 138433.859375 684582.562500 255 255 252
253195.796875 138221.093750 683530.312500 254 255 250
253714.625000 138107.515625 682968.687500 252 255 250
254149.718750 137949.156250 682185.562500 253 254 252
254653.984375 137829.140625 681592.000000 252 253 252
255197.531250 137731.000000 681106.687500 250 252 252
255726.687500 137625.656250 680585.812500 250 251 252
256363.781250 137578.859375 680354.375000 248 251 252
256878.406250 137466.765625 679800.062500 252 253 253
257378.062500 137347.312500 679209.375000 255 254 255
257865.609375 137222.109375 678590.125000 254 252 253
258338.140625 137089.625000 677935.000000 253 252 252
258920.937500 137016.218750 677572.000000 255 254 254
259440.125000 136909.656250 677045.000000 255 254 254
260006.906250 136828.734375 676644.875000 253 252 253
260587.578125 136755.546875 676282.937500 254 253 254
261126.890625 136661.125000 675816.000000 255 254 255
261733.531250 136602.359375 675525.375000 255 254 255
262323.562500 136535.265625 675193.625000 255 254 255
262968.531250 136497.046875 675004.562500 255 254 255
263637.843750 136471.640625 674879.000000 255 254 255
264281.031250 136432.890625 674687.375000 255 254 255
264954.031250 136409.718750 674572.750000 255 253 254
265626.812500 136386.531250 674458.062500 254 252 253
266321.125000 136374.500000 674398.562500 255 253 254
267033.562500 136371.796875 674385.250000 255 254 255
267743.406250 136367.781250 674365.375000 255 254 255
268462.625000 136368.562500 674369.250000 253 254 253
269217.562500 136387.421875 674462.437500 251 254 251
269993.187500 136416.640625 674606.937500 250 255 253
270775.968750 136449.312500 674768.500000 251 255 255
271546.250000 136475.515625 674898.125000 252 255 255
272284.250000 136485.406250 674947.000000 251 255 255
273035.156250 136501.687500 675027.562500 249 253 255
273771.000000 136510.390625 675070.562500 246 250 255
274521.593750 136526.375000 675149.625000 241 244 255
275309.093750 136560.578125 675318.812500 233 237 253
276093.562500 136593.109375 675479.625000 224 228 248
276933.000000 136652.593750 675773.812500 228 233 248
277748.406250 136699.937500 676007.937500 228 234 249
278590.812500 136760.312500 676306.500000 207 213 237
279493.250000 136849.750000 676748.750000 189 195 224
280357.250000 136919.953125 677095.937500 182 190 218
281289.687500 137023.140625 677606.250000 182 191 223
282171.375000 137101.156250 677992.000000 173 186 223
283048.125000 137176.359375 678363.937500 156 170 209
283969.656250 137272.828125 678841.000000 147 160 198
284819.781250 137334.390625 679145.437500 159 166 203
285702.843750 137411.484375 679526.625000 165 167 202
286528.125000 137460.453125 679768.812500 157 160 191
287334.593750 137500.187500 679965.312500 155 157 186
288175.187500 137556.000000 680241.312500 159 158 185
288972.000000 137590.687500 680412.875000 159 158 184
289801.906250 137640.921875 680661.250000 158 157 183
290607.156250 137679.218750 680850.687500 159 158 183
291404.500000 137713.609375 681020.750000 158 157 184
292216.625000 137754.781250 681224.312500 156 157 186
292991.125000 137778.046875 681339.375000 161 163 195
293796.437500 137815.671875 681525.437500 171 173 206
294592.000000 137848.546875 681688.000000 172 176 211
295380.250000 137877.828125 681832.812500 162 167 202
296170.312500 137907.828125 681981.187500 153 157 192
296925.562500 137921.500000 682048.750000 150 153 187
297697.562500 137942.875000 682154.437500 148 151 182
298460.875000 137960.125000 682239.812500 151 153 183
299221.937500 137976.250000 682319.562500 153 156 184
299991.406250 137996.171875 682418.062500 149 154 179
300743.593750 138008.062500 682476.875000 146 150 177
301513.687500 138028.093750 682575.937500 146 150 177
302278.187500 138045.484375 682661.937500 145 151 175
303041.500000 138062.250000 682744.812500 143 148 172
303809.718750 138081.140625 682838.250000 140 143 169
304559.625000 138091.656250 682890.250000 144 145 169
305322.843750 138108.140625 682971.812500 145 145 169
306080.812500 138122.187500 683041.250000 146 144 168
306835.156250 138134.515625 683102.250000 152 149 171
307592.500000 138148.156250 683169.625000 153 149 170
308334.906250 138155.031250 683203.625000 146 142 161
309078.968750 138162.593750 683241.062500 142 138 156
309818.562500 138168.156250 683268.562500 144 141 157
310548.718750 138169.484375 683275.125000 145 141 157
311271.593750 138167.562500 683265.625000 147 143 159
311987.281250 138162.484375 683240.500000 146 142 159
312693.531250 138153.250000 683194.812500 144 139 159
313396.812500 138142.750000 683142.937500 146 142 162
314106.218750 138135.000000 683104.562500 146 142 163
314827.843750 138132.640625 683092.875000 148 143 166
315563.000000 138136.203125 683110.562500 144 141 163
316313.718750 138146.562500 683161.812500 141 142 164
317058.218750 138154.156250 683199.312500 152 156 176
317821.781250 138170.015625 683277.750000 149 153 173
318616.125000 138199.140625 683421.812500 145 149 169
319406.375000 138226.375000 683556.437500 147 151 170
320230.125000 138267.937500 683762.000000 139 142 162
321031.031250 138299.468750 683917.937500 141 144 165
321835.593750 138332.437500 684080.937500 144 147 168
322666.062500 138376.359375 684298.187500 146 148 170
323464.531250 138406.406250 684446.750000 151 153 174
324289.125000 138447.453125 684649.687500 146 151 170
325081.093750 138474.421875 684783.125000 142 147 167
325873.687500 138501.546875 684917.250000 146 152 170
326700.406250 138543.015625 685122.312500 145 152 167
327501.656250 138573.531250 685273.187500 132 139 154
328339.937500 138619.531250 685500.687500 136 143 160
329151.562500 138654.109375 685671.687500 141 149 163
329965.125000 138689.343750 685845.875000 139 147 160
330806.343750 138736.015625 686076.750000 144 153 166
331611.031250 138767.203125 686230.937500 147 155 166
332460.500000 138816.937500 686476.937500 141 149 160
333294.437500 138860.000000 686689.875000 136 144 155
334117.937500 138898.531250 686880.437500 140 148 159
334943.406250 138937.703125 687074.125000 148 156 168
335717.718750 138955.546875 687162.375000 145 153 166
336506.875000 138979.437500 687280.500000 140 147 160
337278.687500 138996.062500 687362.687500 144 150 164
338043.187500 139009.625000 687429.812500 145 151 167
338821.687500 139028.859375 687524.937500 139 144 160
339582.937500 139040.968750 687584.750000 143 146 163
340351.500000 139056.000000 687659.062500 149 153 172
341112.250000 139067.781250 687717.375000 144 146 166
341858.968750 139073.796875 687747.125000 145 145 165
342597.250000 139076.375000 687759.875000 150 150 170
343320.437500 139072.828125 687742.312500 150 150 171
344021.968750 139060.531250 687681.562500 149 148 169
344720.312500 139047.015625 687614.687500 147 148 168
345407.718750 139029.140625 687526.250000 147 150 169
346088.375000 139008.640625 687424.875000 149 152 171
346785.406250 138994.765625 687356.312500 150 154 173
347451.406250 138968.562500 687226.750000 150 156 173
348123.843750 138945.046875 687110.437500 146 151 168
348789.781250 138919.031250 686981.750000 141 145 163
349441.281250 138887.375000 686825.250000 142 146 163
350119.937500 138866.625000 686722.625000 143 146 164
350766.312500 138833.187500 686557.312500 139 141 160
351433.062500 138807.953125 686432.437500 136 140 158
352090.437500 138779.109375 686289.812500 141 144 163
352715.906250 138737.828125 686085.687500 143 147 163
353367.937500 138707.156250 685934.062500 147 150 165
353968.375000 138656.390625 685683.000000 151 154 167
354594.218750 138615.796875 685482.187500 148 150 163
355209.437500 138571.187500 685261.625000 152 154 164
355787.718750 138512.406250 684970.875000 153 155 164
356411.781250 138471.640625 684769.312500 161 163 172
356973.937500 138407.031250 684449.875000 184 186 195
357574.250000 138357.453125 684204.687500 184 186 194
358163.375000 138303.765625 683939.187500 188 190 199
358701.843750 138230.765625 683578.187500 199 200 213
359295.906250 138179.453125 683324.437500 172 174 188
359807.750000 138096.781250 682915.625000 148 148 164
360363.000000 138031.062500 682590.625000 137 136 154
360908.218750 137961.796875 682248.062500 129 130 150
361398.812500 137871.953125 681803.750000 133 137 156
361965.656250 137811.500000 681504.812500 135 141 158
362445.937500 137718.406250 681044.437500 134 139 155
362984.625000 137647.828125 680695.437500 135 137 153
363513.468750 137573.796875 680329.312500 135 135 149
363972.031250 137473.515625 679833.437500 135 134 148
364511.250000 137404.046875 679489.937500 136 135 149
364945.875000 137295.500000 678953.125000 138 136 150
365442.656250 137210.718750 678533.875000 139 137 151
365932.500000 137123.671875 678103.375000 138 135 150
366351.812500 137010.593750 677544.187500 137 136 152
366871.562500 136935.453125 677172.562500 140 141 156
367287.468750 136821.906250 676611.125000 137 140 156
367777.250000 136736.281250 676187.625000 134 137 154
368262.687500 136649.375000 675757.937500 139 142 158
368668.406250 136533.296875 675183.812500 141 147 163
369174.718750 136454.828125 674795.812500 135 142 157
369571.125000 136336.140625 674208.875000 134 138 155
370043.125000 136245.734375 673761.812500 139 142 159
370513.531250 136155.093750 673313.562500 139 139 157
370907.500000 136036.781250 672728.437500 137 136 155
371410.281250 135958.734375 672342.562500 139 139 156
371800.156250 135839.750000 671754.125000 141 142 158
372262.375000 135747.593750 671298.375000 140 143 160
372726.031250 135656.328125 670847.062500 140 143 164
373118.156250 135539.421875 670268.937500 142 145 170
373623.062500 135463.843750 669895.187500 142 146 172
374028.062500 135352.406250 669344.125000 138 144 172
374512.093750 135269.937500 668936.312500 156 162 193
374996.812500 135188.031250 668531.250000 182 188 219
375401.343750 135077.578125 667985.062500 178 185 211
375905.031250 135003.156250 667617.000000 161 168 190
376307.000000 134892.562500 667070.062500 156 162 181
376785.593750 134809.781250 666660.750000 160 162 178
377264.656250 134727.484375 666253.750000 165 166 178
377667.718750 134618.421875 665714.375000 167 167 177
378172.156250 134545.812500 665355.312500 165 164 174
378574.656250 134437.281250 664818.687500 161 161 173
379051.375000 134355.468750 664414.062500 157 157 171
379528.312500 134274.046875 664011.375000 166 167 185
379931.625000 134166.906250 663481.625000 173 174 198
380436.687500 134096.031250 663131.125000 149 152 181
380837.375000 133988.718750 662600.375000 129 133 167
381311.468750 133907.562500 662199.062500 137 141 177
381781.031250 133825.109375 661791.375000 148 155 191
382171.062500 133715.156250 661247.562500 152 161 198
382662.250000 133640.921875 660880.500000 153 164 201
383042.687500 133528.359375 660323.875000 156 172 206
383494.781250 133441.140625 659892.562500 154 172 205
383951.062500 133355.687500 659469.937500 161 183 215
384339.906250 133247.171875 658933.375000 174 200 230
384841.718750 133178.140625 658592.000000 182 209 236
385247.781250 133076.296875 658088.312500 191 220 245
385719.156250 132997.343750 657697.875000 194 226 247
386208.375000 132924.796875 657339.125000 194 225 244
386651.281250 132836.625000 656903.062500 203 231 248
387199.312500 132784.812500 656646.875000 215 240 254
387687.843750 132712.812500 656290.812500 220 245 255
388239.718750 132662.734375 656043.125000 224 248 255
388798.687500 132615.234375 655808.312500 230 251 255
389300.312500 132548.390625 655477.687500 233 252 255
389864.593750 132503.078125 655253.625000 233 252 255
390348.062500 132430.515625 654894.750000 235 254 255
390874.531250 132372.765625 654609.187500 234 254 254
391393.781250 132312.781250 654312.625000 233 253 254
391866.281250 132237.250000 653939.062500 238 255 255
392417.437500 132188.468750 653697.812500 241 254 255
392848.156250 132099.359375 653257.125000 241 252 254
393287.656250 132013.515625 652832.687500 245 255 255
393742.906250 131933.265625 652435.750000 248 255 255
394201.031250 131854.234375 652045.000000 249 255 255
394786.343750 131817.968750 651865.625000 250 255 255
395365.281250 131779.703125 651676.375000 251 255 255
396005.437500 131761.921875 651588.500000 253 255 255
396670.062500 131752.343750 651541.125000 254 255 255
397185.125000 131693.218750 651248.687500 255 255 255
397681.125000 131627.984375 650926.125000 255 255 255
398710.750000 131739.281250 651476.562500 253 252 252
399853.000000 131887.359375 652208.750000 255 253 254
401655.625000 132252.359375 654013.750000 255 255 255
404256.718750 132878.531250 657110.312500 238 231 235
406746.468750 133466.031250 660015.625000 161 140 148
246595.859375 145349.062500 715016.437500 137 134 152
248841.890625 145327.531250 714910.500000 137 135 150
249355.703125 145183.703125 714203.000000 137 135 148
252201.109375 144635.968750 711508.500000 135 135 145
252838.281250 143706.953125 706938.375000 134 136 145
252725.765625 143216.828125 704527.312500 136 137 145
252266.203125 140866.734375 692966.500000 181 158 162
251932.421875 140270.281250 690032.312500 229 205 207
251939.062500 139866.265625 688044.875000 236 211 212
251867.890625 139421.531250 685857.062500 235 216 215
252160.359375 139180.062500 684669.250000 246 236 232
252617.843750 139030.828125 683935.062500 246 237 231
252951.500000 138814.468750 682870.812500 250 243 237
253469.796875 138700.406250 682309.687500 255 250 244
253892.203125 138534.671875 681494.312500 255 251 245
254380.890625 138405.937500 680861.062500 255 252 247
254899.562500 138294.203125 680311.437500 255 255 252
255389.281250 138167.453125 679687.875000 255 255 255
255991.750000 138102.218750 679367.000000 255 255 255
256473.609375 137972.484375 678728.750000 255 255 255
256959.937500 137845.875000 678105.937500 255 255 255
257444.000000 137718.750000 677480.625000 255 254 252
257910.781250 137583.140625 676813.437500 255 255 252
258492.953125 137509.656250 676452.000000 255 255 251
259006.046875 137399.937500 675912.250000 254 250 249
259563.906250 137314.515625 675492.000000 255 253 253
260133.375000 137235.671875 675104.187500 255 254 255
260659.265625 137134.343750 674605.750000 255 252 255
261256.015625 137070.750000 674292.875000 254 252 255
261835.218750 136998.328125 673936.625000 255 253 255
262474.125000 136957.453125 673735.562500 255 253 255
263138.687500 136930.156250 673601.250000 255 253 255
263774.218750 136887.921875 673393.500000 255 253 255
264441.375000 136862.296875 673267.437500 255 253 255
265105.281250 136835.140625 673133.812500 255 254 255
265791.843750 136819.781250 673058.312500 255 254 254
266496.375000 136813.750000 673028.562500 255 254 255
267197.125000 136805.796875 672989.437500 255 255 255
267910.250000 136804.203125 672981.625000 255 255 254
268656.812500 136819.640625 673057.625000 255 255 251
269426.218750 136846.625000 673190.312500 255 255 252
270202.312500 136876.843750 673338.937500 254 255 254
270962.968750 136899.093750 673448.437500 253 254 253
271693.343750 136905.953125 673482.250000 253 255 254
272432.125000 136917.046875 673536.750000 254 255 255
273158.093750 136921.625000 673559.312500 253 255 255
273897.562500 136932.937500 673614.937500 251 254 254
274670.875000 136961.062500 673753.250000 251 252 254
275444.968750 136989.421875 673892.812500 248 251 255
276265.031250 137040.453125 674143.812500 252 255 255
277061.937500 137079.765625 674337.187500 254 255 255
277884.062500 137131.312500 674590.812500 241 249 255
278762.250000 137210.187500 674978.812500 228 237 248
279609.906250 137273.656250 675291.062500 213 223 244
280519.312500 137367.062500 675750.500000 186 199 229
281383.500000 137437.875000 676098.937500 157 173 208
282242.968750 137506.062500 676434.312500 140 158 197
283141.562500 137592.890625 676861.500000 128 146 188
283975.437500 137647.921875 677132.125000 136 147 194
284837.500000 137716.281250 677468.437500 146 154 203
285647.687500 137759.296875 677680.062500 147 155 202
286440.500000 137793.734375 677849.500000 144 151 197
287263.312500 137842.390625 678088.812500 140 147 190
288047.968750 137872.546875 678237.125000 146 151 195
288861.531250 137916.343750 678452.562500 150 157 200
289653.968750 137949.859375 678617.500000 148 156 199
290439.593750 137979.984375 678765.687500 147 154 199
291237.218750 138015.640625 678941.062500 147 155 201
292001.718750 138035.468750 679038.625000 147 157 203
292794.812500 138068.671875 679201.937500 154 165 212
293581.312500 138098.609375 679349.250000 157 169 217
294361.500000 138125.437500 679481.187500 149 162 209
295141.687500 138152.156250 679612.625000 142 156 202
295890.000000 138163.828125 679670.062500 142 155 200
296652.468750 138182.062500 679759.750000 144 157 200
297406.906250 138196.468750 679830.625000 148 161 202
298160.187500 138210.265625 679898.500000 152 164 202
298922.656250 138228.234375 679986.875000 147 161 195
299670.968750 138239.593750 680042.750000 141 155 191
300437.593750 138259.328125 680139.875000 147 160 197
301198.843750 138276.500000 680224.312500 152 165 199
301960.593750 138293.812500 680309.500000 149 161 194
302728.875000 138314.046875 680409.000000 155 166 198
303479.343750 138326.046875 680468.062500 152 162 193
304244.937500 138344.859375 680560.625000 148 155 185
305003.843750 138360.562500 680637.875000 152 155 185
305759.937500 138374.921875 680708.500000 152 154 181
306520.875000 138391.390625 680789.500000 154 155 179
307265.500000 138400.437500 680834.062500 155 154 177
308014.750000 138411.531250 680888.562500 153 152 172
308758.687500 138420.171875 680931.125000 150 149 168
309492.531250 138424.265625 680951.250000 148 146 165
310219.125000 138425.109375 680955.375000 151 147 166
310935.125000 138421.234375 680936.312500 149 145 165
311643.812500 138414.109375 680901.312500 144 139 160
312349.468750 138405.703125 680859.875000 143 138 161
313060.406250 138399.656250 680830.187500 142 138 162
313782.593750 138398.593750 680825.000000 144 139 164
314515.906250 138402.437500 680843.875000 144 141 164
315264.406250 138412.937500 680895.500000 140 143 163
316006.718750 138420.671875 680933.562500 144 149 169
316766.906250 138436.187500 681009.875000 148 153 173
317556.625000 138464.500000 681149.187500 146 151 171
318341.843750 138490.750000 681278.250000 147 151 171
319159.000000 138530.718750 681474.875000 150 155 175
319954.093750 138560.953125 681623.687500 149 153 173
320752.500000 138592.500000 681778.812500 147 152 172
321575.468750 138634.468750 681985.312500 148 153 173
322367.875000 138663.109375 682126.187500 147 152 172
323183.593750 138701.640625 682315.687500 145 150 169
323967.125000 138726.203125 682436.562500 144 150 168
324751.406250 138750.968750 682558.437500 145 152 169
325569.343750 138789.984375 682750.312500 147 154 170
326364.625000 138819.203125 682894.062500 144 151 167
327195.656250 138863.437500 683111.687500 139 146 162
328001.187500 138896.703125 683275.250000 139 147 161
328809.000000 138930.765625 683442.875000 142 152 164
329643.375000 138975.875000 683664.750000 145 155 167
330442.812500 139006.093750 683813.437500 143 154 164
331285.687500 139054.421875 684051.187500 146 155 165
332113.843750 139096.375000 684257.500000 150 158 169
332932.093750 139133.984375 684442.562500 147 155 166
333752.312500 139172.250000 684630.812500 142 150 161
334523.062500 139189.781250 684717.062500 143 152 163
335308.000000 139213.125000 684831.875000 145 153 167
336075.625000 139229.187500 684910.937500 143 149 165
336836.406250 139242.359375 684975.687500 143 149 165
337611.375000 139261.328125 685069.000000 144 149 165
338369.906250 139273.437500 685128.625000 145 147 166
339136.093750 139288.656250 685203.437500 145 146 166
339894.562500 139300.640625 685262.375000 144 145 165
340639.468750 139307.015625 685293.750000 148 147 167
341376.218750 139310.046875 685308.687500 152 147 169
342097.781250 139306.890625 685293.125000 146 142 164
342798.281250 139295.156250 685235.437500 142 139 160
343495.125000 139282.015625 685170.750000 145 142 163
344181.062500 139264.515625 685084.687500 148 147 168
344861.093750 139244.703125 684987.187500 146 147 167
345557.156250 139231.421875 684921.875000 144 145 165
346222.250000 139205.750000 684795.562500 145 147 166
346892.562500 139182.281250 684680.187500 150 152 172
347556.375000 139156.312500 684552.437500 151 154 174
348206.593750 139125.015625 684398.500000 147 149 169
348883.937500 139104.671875 684298.375000 143 146 166
349530.093750 139071.984375 684137.625000 140 144 163
350196.625000 139047.546875 684017.312500 136 141 161
350853.937500 139019.562500 683879.625000 138 143 162
351479.593750 138979.156250 683680.875000 136 142 160
352130.687500 138948.968750 683532.375000 138 144 159
352731.625000 138899.140625 683287.312500 148 151 165
353357.718750 138859.406250 683091.812500 151 153 166
353973.437500 138815.765625 682877.125000 153 153 164
354553.187500 138758.234375 682594.187500 158 157 166
355177.593750 138718.390625 682398.125000 163 162 170
355740.843750 138654.843750 682085.562500 166 165 173
356340.750000 138605.828125 681844.375000 175 173 181
356929.343750 138552.625000 681582.687500 169 168 177
357468.500000 138480.484375 681227.812500 171 168 179
358062.437500 138429.812500 680978.500000 202 199 212
358575.531250 138348.156250 680576.875000 171 169 183
359131.468750 138283.328125 680257.875000 129 128 143
359677.250000 138214.859375 679921.062500 142 143 161
360168.218750 138125.640625 679482.187500 142 145 163
360734.093750 138065.437500 679186.062500 138 142 161
361214.406250 137972.796875 678730.312500 140 145 165
361753.000000 137902.750000 678385.750000 140 143 162
362281.875000 137829.281250 678024.375000 137 139 156
362741.125000 137729.671875 677534.312500 136 139 156
363280.000000 137660.640625 677194.750000 139 141 158
363715.593750 137552.812500 676664.250000 140 142 157
364212.718750 137468.625000 676250.187500 139 141 156
364703.156250 137382.265625 675825.312500 140 142 158
365124.031250 137270.093750 675273.500000 139 141 158
365644.093750 137195.578125 674906.937500 136 139 155
366062.187500 137083.156250 674353.875000 139 142 160
366553.562500 136998.562500 673937.812500 140 143 162
367040.437500 136912.640625 673515.062500 135 138 157
367448.218750 136797.593750 672949.125000 135 140 158
367954.625000 136719.640625 672565.687500 136 142 160
368351.562500 136601.406250 671984.000000 134 139 157
368822.906250 136511.156250 671540.062500 133 138 156
369291.906250 136420.390625 671093.562500 135 140 157
369685.000000 136302.000000 670511.125000 139 144 161
370186.218750 136223.843750 670126.687500 145 149 167
370573.812500 136104.265625 669538.437500 145 150 170
371033.125000 136011.421875 669081.750000 139 145 166
371493.156250 135919.203125 668628.062500 137 143 166
371881.218750 135801.062500 668046.875000 151 157 181
372382.406250 135724.593750 667670.750000 167 174 199
372783.187500 135611.890625 667116.312500 161 171 194
373263.781250 135528.609375 666706.562500 162 171 194
373744.875000 135445.812500 666299.312500 183 192 215
374144.687500 135333.937500 665749.000000 185 194 215
374643.906250 135258.359375 665377.187500 154 163 181
375040.843750 135146.218750 664825.562500 138 145 162
375514.875000 135062.234375 664412.375000 157 162 177
375989.968750 134978.953125 664002.687500 162 166 180
376389.468750 134868.875000 663461.187500 152 155 169
376891.312500 134795.828125 663101.875000 149 153 167
377292.093750 134686.968750 662566.312500 148 152 169
377767.218750 134605.015625 662163.187500 149 155 175
378243.406250 134523.750000 661763.375000 147 155 178
378646.937500 134416.968750 661238.125000 139 146 176
379151.906250 134346.531250 660891.625000 125 134 167
379554.562500 134240.187500 660368.500000 132 144 179
380029.687500 134159.812500 659973.062500 155 166 206
380501.687500 134078.625000 659573.687500 165 177 218
380896.375000 133970.546875 659042.062500 171 186 225
381390.968750 133897.953125 658684.937500 180 196 235
381778.000000 133787.921875 658143.625000 185 203 240
382234.625000 133702.640625 657724.125000 185 207 239
382696.250000 133619.421875 657314.750000 186 211 240
383093.625000 133514.109375 656796.687500 188 215 241
383601.031250 133447.437500 656468.750000 194 222 244
384017.437500 133349.437500 655986.625000 202 231 250
384496.593750 133273.531250 655613.250000 211 240 255
384993.875000 133204.171875 655272.062500 218 247 255
385447.312500 133119.921875 654857.562500 223 249 254
386001.281250 133070.640625 654615.062500 230 253 255
386501.031250 133002.875000 654281.750000 233 254 255
387061.531250 132956.203125 654052.187500 231 252 255
387630.156250 132912.515625 653837.250000 236 253 255
388145.562500 132850.750000 653533.375000 241 255 255
388719.000000 132809.031250 653328.187500 238 254 255
389217.687500 132741.984375 652998.312500 241 255 255
389755.250000 132688.390625 652734.750000 241 255 255
390286.125000 132632.718750 652460.875000 237 253 253
390775.093750 132563.046875 652118.062500 240 254 255
391337.031250 132518.312500 651898.062500 245 255 255
391784.312500 132434.984375 651488.125000 246 254 255
392235.375000 132353.234375 651085.937500 246 255 255
392702.093750 132277.031250 650711.125000 248 255 255
393177.000000 132203.859375 650351.125000 250 255 255
393773.562500 132171.781250 650193.312500 251 255 255
394366.812500 132138.703125 650030.625000 252 254 255
395014.500000 132123.953125 649958.062500 253 255 255
395685.656250 132117.078125 649924.250000 255 255 255
396214.500000 132062.796875 649657.250000 254 253 253
396721.437500 132001.421875 649355.312500 255 255 255
397756.781250 132115.765625 649917.812500 253 252 253
398940.531250 132278.921875 650720.437500 254 252 252
400707.125000 132634.437500 652469.312500 255 255 255
403077.781250 133188.312500 655194.000000 233 226 229
405272.000000 133682.093750 657623.000000 149 131 139
245655.265625 145552.718750 712289.125000 138 136 150
246340.531250 145509.718750 712078.687500 140 138 151
247099.312500 145510.281250 712081.437500 136 134 148
247795.281250 145473.953125 711903.687500 137 135 148
248309.531250 145331.484375 711206.500000 136 134 147
248788.484375 145169.312500 710412.812500 136 135 148
249267.218750 145007.968750 709623.312500 136 136 149
251113.109375 144765.968750 708439.000000 137 138 149
251612.359375 144619.562500 707722.625000 141 141 152
251741.640625 144262.031250 705972.875000 135 135 144
251858.796875 143899.687500 704199.687500 137 138 146
251863.859375 143475.640625 702124.562500 142 143 150
251745.921875 142984.234375 699719.812500 143 140 148
251929.578125 142666.531250 698165.062500 146 138 148
251805.250000 142176.796875 695768.437500 147 133 147
251934.640625 141418.125000 692055.750000 154 131 146
251725.765625 140888.984375 689466.312500 158 135 145
251795.953125 140518.671875 687654.062500 165 141 147
251756.328125 140089.375000 685553.250000 184 159 162
252028.421875 139835.531250 684311.062500 197 174 171
252437.468750 139658.921875 683446.687500 204 182 175
252740.593750 139424.875000 682301.437500 216 193 186
253243.921875 139302.312500 681701.625000 226 205 198
253634.281250 139118.484375 680802.062500 225 207 198
254093.390625 138973.312500 680091.625000 227 211 205
254576.265625 138841.921875 679448.562500 240 228 225
255015.750000 138687.671875 678693.750000 250 244 242
255579.625000 138601.750000 678273.312500 249 248 245
256016.921875 138447.859375 677520.250000 251 249 244
256476.515625 138306.859375 676830.187500 253 251 245
256941.328125 138169.468750 676157.812500 254 254 247
257381.906250 138019.843750 675425.625000 255 255 248
257948.546875 137938.453125 675027.312500 255 254 247
258445.796875 137820.515625 674450.187500 255 253 248
258994.953125 137730.843750 674011.375000 255 254 251
259560.421875 137650.312500 673617.250000 255 255 254
260081.906250 137546.953125 673111.437500 255 255 254
260677.640625 137483.343750 672800.125000 255 253 254
261251.500000 137408.562500 672434.187500 254 252 254
261882.281250 137364.046875 672216.312500 254 252 254
262537.656250 137332.640625 672062.625000 253 251 253
263165.281250 137286.921875 671838.937500 253 252 253
263828.156250 137259.796875 671706.187500 255 254 253
264484.031250 137229.203125 671556.437500 255 255 252
265161.750000 137210.062500 671462.812500 254 254 250
265857.656250 137200.406250 671415.562500 252 251 248
266550.687500 137189.312500 671361.250000 252 250 247
267259.875000 137186.578125 671347.875000 252 251 248
267999.875000 137199.640625 671411.812500 253 253 248
268763.281250 137224.578125 671533.875000 254 253 249
269532.156250 137252.171875 671668.875000 254 253 250
270283.281250 137270.625000 671759.187500 253 252 251
271005.937500 137274.531250 671778.312500 252 252 251
271731.875000 137280.078125 671805.437500 252 253 252
272447.187500 137280.250000 671806.312500 252 253 252
273173.187500 137285.781250 671833.375000 253 254 253
273928.156250 137305.828125 671931.437500 254 254 254
274687.781250 137328.078125 672040.312500 253 254 254
275479.062500 137366.000000 672225.937500 251 254 254
276248.375000 137392.812500 672357.125000 248 252 254
277039.093750 137430.093750 672539.562500 245 253 253
277879.343750 137491.687500 672841.000000 249 255 255
278700.812500 137543.687500 673095.500000 235 246 255
279573.156250 137620.484375 673471.312500 205 218 241
280409.187500 137679.062500 673757.937500 183 199 223
281241.468750 137735.484375 674034.062500 174 194 223
282104.187500 137806.484375 674381.500000 164 183 218
282913.375000 137851.062500 674599.625000 145 160 200
283744.781250 137906.203125 674869.500000 138 147 193
284534.250000 137940.750000 675038.500000 142 150 196
285309.437500 137968.187500 675172.875000 134 142 188
286108.625000 138007.078125 675363.125000 122 130 176
286877.437500 138031.156250 675481.000000 129 138 182
287670.281250 138066.656250 675654.750000 130 139 182
288447.250000 138094.375000 675790.375000 115 124 167
289218.781250 138119.359375 675912.625000 122 133 178
289998.687500 138148.203125 676053.750000 151 162 208
290751.062500 138163.828125 676130.187500 147 158 206
291529.125000 138191.562500 676265.937500 123 136 184
292304.718750 138217.968750 676395.187500 117 132 179
293075.156250 138241.828125 676512.000000 116 133 179
293843.281250 138264.484375 676622.812500 120 138 185
294582.906250 138273.640625 676667.625000 126 144 190
295333.468750 138287.875000 676737.312500 124 142 187
296076.750000 138298.656250 676790.062500 115 132 176
296820.187500 138309.437500 676842.812500 108 126 165
297573.093750 138324.578125 676916.875000 114 133 171
298315.750000 138334.890625 676967.375000 122 141 180
299077.312500 138353.906250 677060.375000 125 143 182
299834.406250 138370.765625 677142.937500 127 146 182
300594.000000 138388.687500 677230.625000 136 153 189
301361.406250 138410.125000 677335.500000 144 160 196
302111.562500 138423.531250 677401.187500 150 164 198
302878.687500 138444.656250 677504.500000 148 160 192
303637.687500 138461.953125 677589.187500 146 154 186
304395.000000 138478.421875 677669.750000 148 154 184
305160.093750 138498.328125 677767.187500 152 157 184
305907.531250 138510.156250 677825.062500 158 160 184
306663.531250 138525.796875 677901.562500 158 160 181
307412.593750 138538.234375 677962.500000 154 156 176
308151.593750 138546.093750 678000.937500 151 150 171
308884.562500 138551.203125 678025.937500 155 153 174
309603.031250 138549.796875 678019.062500 156 154 176
310317.375000 138546.562500 678003.187500 152 150 172
311027.531250 138541.484375 677978.375000 152 150 174
311741.937500 138538.312500 677962.812500 150 147 174
312468.000000 138540.312500 677972.625000 148 145 172
313201.531250 138545.625000 677998.625000 149 149 172
313949.781250 138557.406250 678056.250000 149 152 171
314690.187500 138565.671875 678096.750000 147 152 171
315446.406250 138580.843750 678171.000000 149 153 172
316231.125000 138608.437500 678306.062500 148 150 169
317010.531250 138633.593750 678429.125000 144 147 166
317820.781250 138672.093750 678617.500000 151 154 173
318610.375000 138701.421875 678761.000000 150 153 172
319402.468750 138731.703125 678909.187500 146 149 168
320216.875000 138771.515625 679104.000000 147 150 169
321001.625000 138798.328125 679235.250000 141 146 164
321807.062500 138833.937500 679409.562500 143 148 167
322581.781250 138856.156250 679518.312500 147 152 170
323357.187500 138878.593750 679628.125000 147 152 171
324165.062500 138914.828125 679805.437500 147 153 171
324952.968750 138942.390625 679940.250000 151 157 173
325774.781250 138984.281250 680145.250000 147 153 169
326572.656250 139015.781250 680299.437500 145 151 166
327373.031250 139048.203125 680458.125000 147 156 168
328198.218750 139091.015625 680667.562500 142 151 163
328990.250000 139119.609375 680807.562500 143 150 162
329824.375000 139165.843750 681033.812500 148 154 165
330645.125000 139206.234375 681231.437500 149 153 164
331456.562500 139242.546875 681409.187500 146 150 160
332269.468750 139279.312500 681589.125000 141 146 156
333034.875000 139296.062500 681671.000000 131 136 149
333813.437500 139318.203125 681779.375000 130 134 149
334575.375000 139333.343750 681853.437500 141 146 164
335330.781250 139345.703125 681914.000000 146 151 170
336099.781250 139363.640625 682001.750000 146 151 171
336853.531250 139375.203125 682058.312500 144 147 170
337615.968750 139390.281250 682132.125000 142 144 168
338372.031250 139402.687500 682192.812500 145 148 171
339115.500000 139409.859375 682227.875000 146 149 172
339850.906250 139413.687500 682246.625000 145 145 169
340570.750000 139411.125000 682234.125000 144 143 166
341270.406250 139400.328125 682181.250000 143 142 163
341965.906250 139387.890625 682120.437500 144 143 163
342650.781250 139371.187500 682038.625000 145 145 165
343330.625000 139352.500000 681947.250000 143 145 164
344025.687500 139340.062500 681886.375000 142 144 161
344689.875000 139315.203125 681764.750000 140 142 158
345357.968750 139292.015625 681651.250000 145 147 163
346019.437500 139266.265625 681525.250000 151 154 172
346668.406250 139235.609375 681375.187500 145 149 167
347344.281250 139215.843750 681278.500000 138 142 161
347989.937500 139184.093750 681123.062500 135 141 159
348655.375000 139160.359375 681006.937500 136 141 160
349311.562500 139133.031250 680873.250000 140 145 163
349936.593750 139093.453125 680679.500000 141 147 164
350586.093750 139063.734375 680534.062500 142 148 162
351185.593750 139014.343750 680292.437500 146 150 162
351809.531250 138974.812500 680099.000000 148 150 162
352423.000000 138931.312500 679886.062500 151 152 163
353001.312500 138874.171875 679606.437500 151 151 160
353624.062500 138834.703125 679413.312500 152 151 159
354186.687500 138771.843750 679105.625000 160 157 166
354785.031250 138723.203125 678867.625000 163 160 169
355372.968750 138670.687500 678610.687500 165 163 172
355913.125000 138599.796875 678263.687500 178 175 186
356507.406250 138550.218750 678021.125000 195 191 204
357024.156250 138470.781250 677632.312500 174 170 185
357583.187500 138408.015625 677325.187500 134 133 147
358132.531250 138341.765625 677001.000000 129 128 144
358628.468750 138255.187500 676577.312500 135 136 156
359196.187500 138196.578125 676290.500000 139 143 164
359680.937500 138106.343750 675848.875000 142 147 167
360222.343750 138038.187500 675515.375000 144 149 168
360753.906250 137966.531250 675164.750000 145 150 167
361217.562500 137869.234375 674688.562500 143 149 165
361758.312500 137801.703125 674358.125000 141 147 163
362197.625000 137695.875000 673840.250000 138 144 160
362696.531250 137613.078125 673435.000000 136 142 158
363188.312500 137527.906250 673018.187500 138 144 160
363612.156250 137417.375000 672477.375000 141 146 163
364133.000000 137343.890625 672117.687500 142 146 164
364553.593750 137232.937500 671574.812500 140 143 162
365046.687500 137149.671875 671167.312500 147 150 169
365534.406250 137064.718750 670751.500000 156 159 178
365942.875000 136950.421875 670192.250000 151 156 175
366447.781250 136872.609375 669811.375000 147 151 171
366842.437500 136753.984375 669230.875000 145 150 169
367310.593750 136663.171875 668786.500000 140 148 165
367775.156250 136571.375000 668337.250000 142 151 167
368163.218750 136451.578125 667751.000000 145 154 170
368659.531250 136372.281250 667363.000000 146 156 174
369040.656250 136250.765625 666768.312500 150 158 182
369493.843750 136156.281250 666305.937500 149 157 185
369947.687500 136062.390625 665846.500000 150 159 185
370328.406250 135942.015625 665257.437500 163 173 195
370823.843750 135864.140625 664876.312500 177 189 210
371218.750000 135749.796875 664316.687500 173 187 205
371695.187500 135665.640625 663904.875000 152 167 182
372172.656250 135582.171875 663496.437500 140 154 168
372567.968750 135469.156250 662943.375000 146 160 173
373062.906250 135392.718750 662569.312500 141 152 166
373455.031250 135279.343750 662014.437500 135 144 159
373924.437500 135194.328125 661598.375000 155 164 179
374395.406250 135110.187500 661186.625000 158 166 183
374791.500000 134999.390625 660644.437500 135 143 163
375290.937500 134926.171875 660286.125000 117 126 149
375690.093750 134817.234375 659753.062500 113 123 148
376163.281250 134735.218750 659351.750000 125 138 165
376638.625000 134654.281250 658955.625000 143 158 188
377042.593750 134548.187500 658436.437500 153 169 201
377547.718750 134478.500000 658095.437500 154 173 208
377953.937500 134373.921875 657583.625000 153 174 212
378431.968750 134295.203125 657198.437500 157 179 218
378908.375000 134216.203125 656811.812500 167 189 228
379310.343750 134111.187500 656297.875000 177 199 237
379809.750000 134040.937500 655954.062500 184 208 244
380205.312500 133934.359375 655432.500000 191 216 248
380667.312500 133851.531250 655027.187500 200 226 253
381134.625000 133770.859375 654632.437500 207 233 255
381541.031250 133669.171875 654134.812500 210 237 254
382054.062500 133605.125000 653821.375000 218 245 254
382479.031250 133510.578125 653358.687500 223 249 254
382963.312500 133437.031250 652998.750000 227 251 255
383464.968750 133369.796875 652669.750000 232 254 255
383925.187500 133288.421875 652271.562500 234 255 255
384482.468750 133240.984375 652039.375000 238 255 255
384989.593750 133176.359375 651723.125000 243 255 255
385555.406250 133132.234375 651507.187500 243 255 255
386130.468750 133091.453125 651307.625000 244 254 255
386655.656250 133033.656250 651024.812500 248 255 255
387235.281250 132994.765625 650834.500000 248 255 255
387746.687500 132932.625000 650530.437500 246 254 253
388294.500000 132883.171875 650288.375000 245 253 252
388836.406250 132831.875000 650037.312500 244 253 252
389339.281250 132767.437500 649722.000000 245 255 254
389909.125000 132726.046875 649519.437500 248 255 254
390372.531250 132648.609375 649140.500000 249 255 253
390837.343750 132571.937500 648765.312500 249 255 254
391318.625000 132501.109375 648418.687500 251 255 255
391813.031250 132434.968750 648095.000000 252 255 255
392421.812500 132407.656250 647961.312500 251 253 254
393030.406250 132380.375000 647827.875000 254 254 255
393683.437500 132368.125000 647767.875000 254 253 255
394362.656250 132364.718750 647751.187500 253 252 253
394918.156250 132319.859375 647531.625000 254 251 253
395451.875000 132267.859375 647277.250000 255 253 254
396505.218750 132389.562500 647872.812500 253 253 252
397722.093750 132565.343750 648733.000000 253 253 251
399455.250000 132912.296875 650430.875000 255 255 255
401659.218750 133414.421875 652888.187500 237 233 232
403641.906250 133841.468750 654977.937500 155 143 145
245710.062500 145893.203125 710256.250000 137 134 151
246439.546875 145877.578125 710180.125000 136 134 150
247107.593750 145825.781250 709928.000000 134 131 148
247602.312500 145672.328125 709180.937500 135 133 147
248077.031250 145508.078125 708381.312500 141 139 154
248556.218750 145347.421875 707599.187500 142 140 155
249246.250000 145310.671875 707420.250000 136 134 147
250420.015625 145118.281250 706483.687500 140 139 152
250923.234375 144974.609375 705784.250000 143 142 155
251101.437500 144644.578125 704177.562500 142 141 154
251287.953125 144321.281250 702603.625000 138 137 148
251372.859375 143941.734375 700755.812500 140 140 149
251322.093750 143486.953125 698541.812500 143 142 152
251533.453125 143184.078125 697067.312500 142 135 151
251492.640625 142739.843750 694904.687500 143 131 150
251665.078125 142418.906250 693342.187500 144 130 150
252713.250000 140135.859375 682227.625000 157 136 131
253195.968750 140001.312500 681572.562500 155 134 128
254438.875000 139489.703125 679081.937500 158 143 139
254838.546875 139313.109375 678222.125000 175 162 162
255373.906250 139211.468750 677727.375000 177 166 166
255774.343750 139037.062500 676878.250000 174 165 163
256208.812500 138882.078125 676123.750000 179 172 168
256652.453125 138732.921875 675397.687500 194 188 181
257063.984375 138567.296875 674591.312500 205 199 193
257611.687500 138475.781250 674145.812500 207 198 196
258093.843750 138349.640625 673531.687500 216 207 205
258638.781250 138257.781250 673084.437500 224 217 214
259208.062500 138179.375000 672702.812500 229 221 220
259735.343750 138079.093750 672214.562500 238 229 230
