ply
		format ascii 1.0
		element vertex 61043
		property float x
		property float y
		property float z
		property uchar red
		property uchar green
		property uchar blue
		end_header
361645.718750 22144.306641 866733.937500 156 176 126
362417.750000 22135.121094 866374.375000 154 174 125
363199.250000 22126.558594 866039.250000 153 173 124
363894.562500 22112.802734 865500.875000 152 172 122
364637.000000 22101.970703 865076.875000 151 171 120
365363.718750 22090.246094 864617.937500 152 171 120
366026.000000 22074.693359 864009.187500 151 171 118
366765.781250 22063.878906 863585.937500 149 172 118
367445.000000 22049.484375 863022.562500 150 172 116
368215.093750 22040.603516 862674.937500 152 172 117
368977.437500 22031.302734 862310.875000 152 172 119
369630.406250 22015.533203 861693.687500 153 170 119
370335.656250 22002.949219 861201.125000 154 173 121
370984.593750 21987.087891 860580.312500 154 176 122
371705.750000 21975.576172 860129.750000 152 177 123
372488.000000 21967.722656 859822.375000 151 178 124
373272.156250 21960.021484 859520.937500 149 178 123
374147.531250 21957.710938 859430.500000 150 179 123
375128.000000 21961.562500 859581.250000 154 181 126
376119.187500 21966.023438 859755.875000 159 185 129
377263.218750 21979.367188 860278.125000 161 187 131
378631.656250 22005.687500 861308.312500 160 185 129
380000.343750 22031.894531 862334.062500 158 183 127
381435.031250 22061.792969 863504.312500 156 182 126
382556.218750 22073.460938 863961.000000 156 185 128
383739.718750 22088.658203 864555.750000 159 188 130
385193.812500 22119.320312 865755.937500 160 190 133
386581.093750 22146.009766 866800.562500 162 191 135
388797.031250 22219.931641 869693.875000 169 199 142
390987.750000 22292.062500 872517.125000 174 203 147
393665.875000 22391.576172 876412.062500 173 202 145
396604.500000 22505.400391 880867.250000 181 210 154
398856.312500 22579.806641 883779.500000 183 214 157
404529.812500 22847.113281 894241.937500 183 214 157
410013.781250 23102.488281 904237.375000 194 224 168
418617.468750 23532.035156 921050.000000 201 231 177
433037.437500 24285.767578 950551.250000 186 216 163
446664.875000 24991.642578 978179.375000 168 197 147
464275.187500 25916.566406 1014381.125000 152 181 134
477137.625000 26572.777344 1040065.437500 130 162 115
487188.562500 27069.736328 1059516.500000 119 152 107
498133.093750 27613.937500 1080816.625000 125 158 114
503080.375000 27823.939453 1089036.250000 135 168 125
509181.562500 28096.648438 1099710.125000 140 172 130
513743.031250 28283.337891 1107017.250000 143 173 132
517386.437500 28418.750000 1112317.250000 135 163 125
522214.843750 28618.480469 1120134.750000 126 154 116
525614.125000 28739.164062 1124858.375000 122 149 110
595463.187500 31904.333984 1248743.875000 133 149 108
606987.437500 32449.369141 1270076.750000 155 168 130
3513260.750000 392106.312500 14733415.000000 255 253 254
3551056.750000 394563.656250 14825750.000000 255 253 254
3616083.750000 400011.500000 15030454.000000 254 253 253
3682970.000000 405616.187500 15241050.000000 253 254 253
3726436.000000 408603.625000 15353303.000000 254 254 253
3739155.000000 408208.343750 15338450.000000 254 254 251
3736665.500000 406163.343750 15261610.000000 254 254 251
3722095.500000 402828.656250 15136309.000000 254 255 251
3712303.750000 400037.593750 15031434.000000 254 255 249
3727772.000000 399980.843750 15029301.000000 253 254 249
3763506.000000 402089.718750 15108542.000000 253 254 248
3800279.500000 404291.250000 15191265.000000 254 254 245
3822741.750000 404958.062500 15216321.000000 254 254 242
3847646.000000 405876.875000 15250845.000000 254 254 243
3886799.250000 408284.718750 15341320.000000 254 254 242
3925850.750000 410661.812500 15430639.000000 254 255 240
3971079.500000 413662.562500 15543392.000000 254 255 238
4007238.250000 415697.500000 15619856.000000 254 255 236
4039107.500000 417272.468750 15679036.000000 254 255 235
4072844.000000 419026.656250 15744949.000000 254 255 235
4097251.750000 419810.562500 15774405.000000 254 255 234
4123837.750000 420810.375000 15811973.000000 254 255 234
4149040.000000 421661.437500 15843951.000000 253 255 234
4169734.750000 422049.375000 15858528.000000 253 255 234
4187780.000000 422167.093750 15862951.000000 254 255 234
4201543.000000 421853.906250 15851183.000000 254 255 237
4204686.500000 420481.218750 15799605.000000 254 255 236
4198849.500000 418224.968750 15714826.000000 254 254 235
4198583.000000 416539.312500 15651487.000000 255 254 235
4216880.500000 416701.406250 15657577.000000 255 254 233
4250001.500000 418321.218750 15718443.000000 255 255 231
4287202.000000 420328.375000 15793861.000000 255 255 231
4319634.000000 421854.093750 15851190.000000 255 255 231
4346488.500000 422825.468750 15887689.000000 255 255 231
4367403.500000 423213.687500 15902277.000000 255 255 229
4379698.500000 422766.812500 15885485.000000 255 255 229
4382627.500000 421422.812500 15834984.000000 255 255 227
4382868.000000 419831.531250 15775192.000000 255 255 227
4381500.500000 418098.968750 15710092.000000 255 255 227
4383118.000000 416663.375000 15656148.000000 255 255 228
4393811.000000 416098.062500 15634907.000000 255 255 229
4396668.000000 414797.781250 15586049.000000 255 255 229
4400882.500000 413634.812500 15542350.000000 255 255 231
4401263.500000 412121.625000 15485492.000000 255 255 231
4393668.000000 409875.625000 15401098.000000 255 255 231
4390983.000000 408102.687500 15334481.000000 255 255 230
4379896.500000 405564.937500 15239124.000000 255 255 230
4376277.500000 403734.843750 15170358.000000 255 255 229
4372855.000000 401936.281250 15102777.000000 255 255 229
4362889.000000 399551.593750 15013173.000000 255 255 229
4361501.000000 397967.000000 14953632.000000 255 255 229
4353553.000000 395797.625000 14872116.000000 255 255 229
4354760.500000 394473.218750 14822352.000000 255 255 229
4353819.500000 392964.500000 14765662.000000 255 255 229
4342559.500000 390538.593750 14674509.000000 255 255 229
4337061.000000 388646.375000 14603409.000000 255 255 229
4310882.000000 384921.125000 14463432.000000 255 255 229
4284792.000000 381230.250000 14324747.000000 255 255 229
4260044.000000 377684.562500 14191518.000000 255 255 229
4239295.500000 374517.218750 14072505.000000 255 255 229
4239654.500000 373230.375000 14024152.000000 255 255 229
4225880.000000 370712.718750 13929551.000000 255 255 229
4217335.500000 368669.812500 13852788.000000 255 255 229
4202271.000000 366073.187500 13755219.000000 255 255 227
4172316.250000 362201.968750 13609759.000000 255 255 227
4151987.250000 359190.250000 13496593.000000 255 255 227
4107205.500000 354091.187500 13304995.000000 255 255 226
4071148.000000 349776.687500 13142878.000000 255 255 227
4034328.250000 345426.500000 12979419.000000 255 255 226
3992343.250000 340665.218750 12800514.000000 255 255 225
3974233.250000 337966.656250 12699116.000000 255 255 225
3928748.250000 332966.312500 12511227.000000 255 255 225
3888790.750000 328466.656250 12342152.000000 255 255 225
3847762.000000 323907.093750 12170826.000000 255 255 224
3805578.500000 319281.218750 11997009.000000 254 255 223
3789861.250000 316899.375000 11907511.000000 254 255 223
3727043.250000 310608.031250 11671114.000000 254 255 223
3657887.000000 303832.062500 11416505.000000 254 255 223
3585780.000000 296856.625000 11154404.000000 254 255 223
3509058.500000 289546.500000 10879725.000000 254 255 223
3469621.500000 285350.812500 10722073.000000 254 255 223
3441280.250000 282092.187500 10599630.000000 254 255 223
3442981.000000 281309.468750 10570218.000000 254 255 223
3466054.000000 282272.343750 10606399.000000 254 255 223
3516125.000000 285420.562500 10724693.000000 254 255 223
3580298.000000 289689.406250 10885095.000000 254 255 225
3513545.000000 283371.406250 10647696.000000 254 254 226
3456696.250000 277890.218750 10441740.000000 255 253 229
3213900.250000 257543.453125 9677209.000000 255 254 233
3144446.500000 251172.921875 9437836.000000 255 255 236
3201707.750000 254932.531250 9579103.000000 255 255 236
1832173.625000 145421.796875 5464232.000000 254 255 236
1091545.000000 86363.117188 3245098.750000 251 255 236
747195.125000 58931.667969 2214360.500000 249 255 236
581480.812500 45717.496094 1717837.375000 245 255 231
525034.062500 41150.132812 1546218.500000 230 246 215
483402.187500 37768.812500 1419165.125000 227 251 213
472461.593750 36799.031250 1382725.625000 217 244 203
475735.062500 36938.945312 1387982.750000 186 216 173
469139.468750 36314.066406 1364502.875000 165 198 155
465828.437500 35946.503906 1350691.750000 162 195 149
463984.000000 35694.027344 1341204.875000 173 203 151
465976.093750 35737.335938 1342832.250000 186 215 161
468955.500000 35855.867188 1347286.125000 192 220 169
469408.875000 35781.128906 1344477.875000 207 232 186
469049.531250 35645.082031 1339365.875000 223 247 204
466708.531250 35359.722656 1328643.500000 216 242 202
463739.531250 35028.648438 1316203.375000 200 227 186
461583.062500 34760.761719 1306137.500000 190 217 175
461555.437500 34654.320312 1302137.875000 172 200 155
464058.843750 34737.976562 1305281.375000 174 199 150
466545.937500 34819.921875 1308360.375000 185 208 156
469054.125000 34902.945312 1311480.000000 191 213 162
470380.187500 34897.773438 1311285.750000 199 221 171
468926.031250 34686.976562 1303365.000000 186 211 163
466414.906250 34399.468750 1292561.875000 181 208 160
465182.968750 34207.722656 1285357.000000 185 212 165
467058.125000 34244.910156 1286754.375000 188 213 163
469683.281250 34336.710938 1290203.750000 191 216 159
470488.000000 34295.277344 1288646.875000 194 219 160
470595.156250 34203.386719 1285194.000000 189 213 155
471704.250000 34184.640625 1284489.625000 192 215 159
474558.406250 34292.101562 1288527.500000 192 214 158
477189.968750 34382.902344 1291939.375000 189 209 154
481037.937500 34560.582031 1298615.625000 188 206 151
484846.687500 34734.429688 1305148.000000 178 196 138
471905.437500 33710.738281 1266682.750000 175 191 132
455664.500000 32457.839844 1219605.125000 210 222 163
428697.718750 30450.207031 1144168.125000 226 236 181
389733.312500 27604.175781 1037228.375000 238 243 198
360428.343750 25456.449219 956527.437500 255 255 220
339409.000000 23904.371094 898208.062500 252 254 221
335824.156250 23585.464844 886225.125000 252 253 221
339234.281250 23758.238281 892717.062500 254 254 221
338390.843750 23632.980469 888010.500000 252 254 216
338545.781250 23577.953125 885942.812500 252 254 212
338582.656250 23515.029297 883578.437500 254 255 212
339024.593750 23480.507812 882281.312500 252 255 210
339646.937500 23458.640625 881459.687500 246 253 207
339926.750000 23413.296875 879755.937500 234 250 202
340374.093750 23379.712891 878494.000000 225 249 199
340777.750000 23343.318359 877126.437500 225 249 198
341484.843750 23327.853516 876545.375000 224 244 193
342218.218750 23314.261719 876034.625000 213 231 180
342692.093750 23283.115234 874864.250000 205 223 170
343227.281250 23256.289062 873856.312500 210 225 174
343580.531250 23217.316406 872391.875000 212 225 177
344044.375000 23186.001953 871215.312500 205 218 172
344573.718750 23159.263672 870210.562500 198 212 166
345096.875000 23132.251953 869195.625000 191 207 160
345846.437500 23120.519531 868754.750000 199 215 167
346572.968750 23107.314453 868258.625000 204 220 170
347374.968750 23099.197266 867953.562500 193 212 159
348240.906250 23095.365234 867809.562500 185 204 148
349097.906250 23090.962891 867644.125000 183 200 142
350010.218750 23090.230469 867616.625000 176 193 136
350928.031250 23089.865234 867602.937500 176 192 135
351857.843750 23090.289062 867618.812500 177 191 135
352790.781250 23090.916016 867642.375000 173 187 132
353715.968750 23091.033203 867646.750000 173 186 133
354637.406250 23090.904297 867641.937500 171 183 131
355506.625000 23087.384766 867509.687500 171 185 133
356343.718750 23081.804688 867300.062500 170 185 133
357173.562500 23075.783203 867073.812500 162 177 127
358027.218750 23071.328125 866906.375000 154 169 120
358929.218750 23070.001953 866856.562500 151 166 118
359815.156250 23067.656250 866768.375000 151 167 120
360723.437500 23066.748047 866734.250000 150 168 122
361602.812500 23064.000000 866631.062500 150 168 121
362416.187500 23057.070312 866370.625000 147 166 118
363226.031250 23049.949219 866103.125000 144 163 115
363953.406250 23037.646484 865640.750000 146 165 115
364713.218750 23027.451172 865257.750000 146 167 116
365452.937500 23016.042969 864829.062500 146 165 115
366137.062500 23001.201172 864271.375000 147 167 114
366892.125000 22990.876953 863883.437500 144 165 110
367588.875000 22976.958984 863360.500000 143 163 107
368371.031250 22968.437500 863040.250000 145 165 108
369139.375000 22959.097656 862689.312500 146 167 112
369794.406250 22942.773438 862076.000000 149 169 118
370495.468750 22929.380859 861572.750000 149 171 120
371139.125000 22912.509766 860938.750000 147 172 119
371859.187500 22900.427734 860484.812500 148 172 120
372637.531250 22891.984375 860167.562500 150 175 122
373412.062500 22883.349609 859843.062500 152 178 123
374277.906250 22880.337891 859729.937500 153 180 125
375235.968750 22882.966797 859828.687500 158 183 127
376210.000000 22886.552734 859963.437500 160 185 127
377325.375000 22898.697266 860419.812500 158 183 126
378635.406250 22922.570312 861316.812500 158 183 126
379947.968750 22946.480469 862215.250000 154 179 122
381352.281250 22975.802734 863317.000000 155 180 123
382512.437500 22990.308594 863862.062500 158 185 127
383718.500000 23007.498047 864508.000000 156 184 126
385110.718750 23035.742188 865569.250000 158 186 131
386401.375000 23057.789062 866397.625000 163 191 136
388439.468750 23124.226562 868894.062500 170 199 144
390491.062500 23191.150391 871408.687500 174 203 149
392977.468750 23283.519531 874879.500000 173 202 146
395777.968750 23394.017578 879031.500000 184 212 156
397999.875000 23469.875000 881881.812500 190 217 162
402637.718750 23687.507812 890059.375000 187 215 159
406490.125000 23858.019531 896466.312500 192 221 165
413083.156250 24188.210938 908873.312500 201 230 176
425002.843750 24828.033203 932914.687500 197 226 173
436748.875000 25454.753906 956463.750000 178 208 157
453916.500000 26393.806641 991748.687500 157 187 138
468715.906250 27191.119141 1021707.750000 141 173 124
481672.968750 27878.109375 1047521.437500 128 161 112
494317.093750 28543.855469 1072536.875000 129 161 117
499416.218750 28771.863281 1081104.250000 134 165 123
505877.093750 29077.089844 1092573.250000 136 167 124
510853.218750 29295.771484 1100790.250000 149 178 137
514801.031250 29454.619141 1106758.875000 142 169 129
605776.687500 33733.636719 1267543.250000 133 144 102
3487374.750000 404781.906250 14624859.000000 255 253 254
3525185.750000 407352.593750 14717738.000000 255 253 254
3590427.500000 413056.250000 14923812.000000 255 254 254
3657520.750000 418921.718750 15135733.000000 254 254 253
3700944.500000 422036.656250 15248276.000000 254 254 252
3713378.000000 421605.812500 15232710.000000 254 254 252
3710579.500000 419456.843750 15155067.000000 254 255 250
3695818.250000 415980.031250 15029449.000000 254 255 249
3685816.500000 413066.562500 14924185.000000 254 254 247
3700973.500000 412985.531250 14921257.000000 253 254 249
3736408.500000 415158.281250 14999759.000000 253 254 247
3772857.000000 417424.718750 15081646.000000 254 254 243
3795161.250000 418113.656250 15106538.000000 254 255 241
3819823.250000 419055.437500 15140565.000000 254 255 241
3858478.500000 421518.031250 15229538.000000 254 255 240
3897004.750000 423945.937500 15317259.000000 254 255 239
3941343.500000 426983.343750 15427001.000000 254 255 238
3976537.250000 429008.906250 15500186.000000 254 255 236
4007589.000000 430572.750000 15556687.000000 254 255 234
4040861.750000 432361.343750 15621310.000000 254 255 234
4065302.000000 433194.125000 15651398.000000 254 255 234
4091825.250000 434241.156250 15689227.000000 253 255 233
4116817.750000 435117.906250 15720904.000000 255 254 233
4137253.250000 435507.812500 15734993.000000 255 254 233
4154992.000000 435611.875000 15738752.000000 255 254 233
4168478.750000 435271.125000 15726441.000000 255 255 233
4171470.000000 433841.562500 15674790.000000 255 254 234
4165820.750000 431528.281250 15591211.000000 255 254 232
4165505.000000 429783.687500 15528178.000000 255 254 232
4183099.250000 429893.468750 15532145.000000 255 254 231
4215242.500000 431491.687500 15589889.000000 255 255 230
4250826.500000 433428.218750 15659856.000000 255 255 231
4281760.000000 434877.250000 15712210.000000 255 255 230
4307131.500000 435752.312500 15743827.000000 255 255 230
4326569.000000 436022.625000 15753593.000000 255 255 229
4338084.000000 435495.468750 15734546.000000 255 255 227
4340082.500000 434020.718750 15681263.000000 255 255 227
4339756.500000 432325.687500 15620021.000000 255 255 227
4337822.500000 430484.031250 15553482.000000 255 255 227
4338496.500000 428914.187500 15496763.000000 255 255 228
4348368.500000 428262.125000 15473204.000000 255 255 229
4349869.000000 426793.656250 15420147.000000 255 255 229
4352524.500000 425449.062500 15371567.000000 255 255 228
4351805.000000 423785.906250 15311477.000000 255 255 229
4344073.500000 421454.812500 15227254.000000 255 255 231
4342102.000000 419697.875000 15163775.000000 255 255 229
4331659.000000 417138.125000 15071291.000000 255 255 229
4328182.000000 415265.593750 15003636.000000 255 255 229
4324687.500000 413405.125000 14936417.000000 255 255 228
4314546.500000 410925.312500 14846821.000000 255 255 228
4312811.500000 409261.250000 14786699.000000 255 255 228
4304880.000000 407023.406250 14705844.000000 255 255 228
4306703.000000 405720.750000 14658779.000000 255 255 228
4305999.500000 404190.312500 14603485.000000 255 255 228
4293846.000000 401600.000000 14509895.000000 255 255 228
4286884.000000 399512.031250 14434457.000000 255 255 227
4258904.000000 395487.218750 14289040.000000 255 255 227
4231486.000000 391543.062500 14146537.000000 255 255 227
4205741.000000 387781.156250 14010618.000000 255 255 227
4184310.500000 384442.218750 13889981.000000 255 255 227
4184573.750000 383112.906250 13841953.000000 255 255 227
4170293.750000 380466.093750 13746323.000000 255 255 227
4161236.000000 378312.593750 13668517.000000 255 255 227
4145169.750000 375539.156250 13568312.000000 255 255 227
4113164.000000 371345.906250 13416808.000000 255 255 227
4090781.500000 368047.468750 13297635.000000 255 255 225
4044954.500000 362669.750000 13103337.000000 255 255 225
4009681.250000 358272.000000 12944445.000000 255 255 225
3973774.750000 353847.937500 12784603.000000 255 255 225
3930722.250000 348819.937500 12602941.000000 255 255 225
3910647.500000 345858.312500 12495936.000000 255 255 225
3866017.500000 340752.437500 12311459.000000 255 255 225
3828922.750000 336342.937500 12152144.000000 255 255 225
3792189.000000 331994.781250 11995044.000000 255 255 224
3754852.500000 327623.156250 11837096.000000 255 255 224
3742571.250000 325459.656250 11758928.000000 254 255 223
3683196.000000 319228.843750 11533808.000000 254 255 223
3615852.250000 312351.093750 11285313.000000 254 255 223
3544099.750000 305139.281250 11024748.000000 254 255 223
3467211.250000 297534.312500 10749980.000000 254 255 223
3426765.000000 293096.343750 10589635.000000 254 255 223
3396218.750000 289531.437500 10460834.000000 254 255 223
3393844.000000 288383.625000 10419364.000000 254 255 223
3415204.000000 289253.562500 10450794.000000 254 255 223
3462038.500000 292268.406250 10559722.000000 254 255 224
3523361.500000 296482.906250 10711992.000000 255 255 225
3498989.250000 293482.468750 10603585.000000 254 254 226
3537574.500000 295764.937500 10686052.000000 255 253 227
3333525.000000 277811.906250 10037405.000000 255 254 231
3064487.500000 254574.843750 9197845.000000 255 254 236
2854343.250000 236362.609375 8539833.000000 255 255 237
1862216.000000 153717.031250 5553830.000000 255 255 239
1290996.500000 106228.421875 3838056.000000 252 255 240
923270.500000 75730.820312 2736171.250000 250 255 236
681018.187500 55684.566406 2011895.500000 250 255 235
572774.250000 46687.031250 1686812.625000 241 252 226
501826.843750 40776.281250 1473256.000000 232 251 216
483900.500000 39197.195312 1416203.125000 222 247 207
485674.531250 39218.742188 1416981.750000 205 235 194
475602.656250 38286.546875 1383301.250000 179 212 169
471373.187500 37828.972656 1366769.000000 160 193 148
468181.437500 37457.234375 1353338.125000 173 204 152
468983.843750 37406.359375 1351499.875000 186 214 160
471129.625000 37462.609375 1353532.375000 195 220 169
470770.250000 37319.925781 1348377.125000 205 229 180
470187.843750 37160.480469 1342616.375000 210 237 191
467759.375000 36856.546875 1331635.000000 214 242 201
464862.500000 36517.648438 1319390.625000 208 236 196
462949.343750 36257.839844 1310003.625000 198 226 186
463269.125000 36173.945312 1306972.500000 184 212 169
466116.156250 36287.300781 1311068.000000 180 205 159
468576.468750 36369.960938 1314054.625000 185 206 157
470629.593750 36420.621094 1315885.000000 193 212 162
471362.656250 36369.128906 1314024.500000 201 221 172
469443.656250 36113.917969 1304803.750000 192 215 166
466729.437500 35799.218750 1293433.625000 184 209 161
465710.843750 35616.046875 1286815.500000 189 214 166
468309.125000 35709.742188 1290200.750000 190 215 163
471573.187500 35853.511719 1295395.250000 186 211 155
472257.312500 35800.863281 1293493.000000 189 214 156
471725.687500 35656.625000 1288281.625000 190 214 156
472353.500000 35600.605469 1286257.625000 188 212 155
475550.437500 35737.984375 1291221.125000 193 215 159
478079.531250 35824.523438 1294347.875000 199 219 163
481364.531250 35967.050781 1299497.375000 198 217 161
484490.625000 36096.917969 1304189.500000 193 211 153
465314.562500 34569.171875 1248991.625000 190 206 146
438592.875000 32491.144531 1173912.125000 216 230 172
407200.656250 30079.912109 1086793.750000 241 251 198
374997.125000 27622.576172 998009.750000 251 255 210
355365.843750 26102.589844 943092.250000 251 254 215
340101.531250 24911.025391 900040.812500 251 253 215
336698.593750 24592.509766 888532.750000 255 255 218
338669.593750 24667.195312 891231.125000 255 255 218
337692.812500 24527.357422 886178.750000 253 254 213
337971.656250 24479.242188 884440.312500 251 254 209
338088.875000 24419.720703 882289.875000 252 255 207
338517.343750 24382.949219 880961.250000 248 255 205
339094.625000 24357.070312 880026.250000 241 250 201
339333.843750 24307.117188 878221.437500 230 247 197
339748.781250 24269.992188 876880.062500 225 246 198
340145.125000 24231.744141 875498.187500 226 247 198
340873.218750 24217.275391 874975.437500 222 242 191
341646.187500 24206.064453 874570.375000 211 229 180
342160.718750 24176.652344 873507.750000 206 222 174
342724.437500 24150.865234 872576.062500 207 223 174
343111.656250 24112.816406 871201.312500 206 221 175
343593.062500 24081.572266 870072.500000 203 216 172
344138.187500 24054.951172 869110.625000 197 209 165
344691.562500 24029.046875 868174.687500 189 203 157
345464.937500 24018.576172 867796.437500 191 204 158
346220.562500 24006.933594 867375.750000 191 205 157
347038.500000 23999.660156 867112.937500 186 201 151
347918.968750 23996.738281 867007.375000 181 195 144
348800.593750 23993.910156 866905.250000 175 189 136
349731.125000 23994.453125 866924.812500 169 182 130
350675.812500 23995.962891 866979.375000 165 177 125
351625.718750 23997.820312 867046.500000 164 176 124
352577.687500 23999.806641 867118.250000 166 176 124
353525.406250 24001.496094 867179.312500 164 173 122
354459.281250 24002.240234 867206.187500 165 174 124
355356.687500 24000.515625 867143.812500 166 176 126
356223.375000 23996.730469 867007.125000 162 172 124
357083.375000 23992.515625 866854.812500 157 168 120
357967.312500 23989.927734 866761.312500 150 163 115
358884.500000 23989.576172 866748.625000 144 157 111
359796.125000 23988.855469 866722.562500 143 156 112
360725.093750 23989.291016 866738.312500 143 158 115
361626.906250 23987.921875 866688.875000 144 160 115
362473.156250 23982.882812 866506.812500 143 161 113
363307.468750 23977.085938 866297.312500 141 159 111
364060.906250 23965.992188 865896.500000 144 162 113
364832.468750 23956.142578 865540.625000 146 165 114
365580.375000 23944.794922 865130.687500 146 166 113
366282.000000 23930.480469 864613.500000 148 167 115
367051.031250 23920.630859 864257.625000 145 164 110
367764.437500 23907.212891 863772.875000 144 163 108
368558.312500 23899.082031 863479.062500 147 166 110
369334.031250 23889.816406 863144.250000 148 167 111
369994.093750 23873.132812 862541.500000 144 167 115
370694.218750 23859.113281 862034.937500 144 169 117
371339.875000 23841.662109 861404.500000 146 169 117
372065.281250 23829.408203 860961.750000 147 170 117
372848.031250 23820.876953 860653.437500 150 175 120
373624.062500 23811.958984 860331.250000 155 178 124
374488.343750 23808.693359 860213.312500 155 179 123
375443.000000 23811.179688 860303.062500 156 181 124
376422.312500 23815.210938 860448.750000 156 181 124
377528.968750 23827.259766 860884.062500 154 179 122
378790.125000 23848.978516 861668.750000 158 182 125
380042.437500 23870.035156 862429.625000 155 180 122
381427.000000 23899.279297 863486.187500 154 178 121
382640.250000 23917.673828 864150.750000 156 182 124
383898.750000 23938.800781 864914.062500 154 182 124
385288.875000 23968.015625 865969.687500 156 184 127
386541.812500 23988.576172 866712.500000 159 187 130
388440.093750 24048.996094 868895.437500 166 194 138
390277.093750 24105.341797 870931.250000 172 199 145
392586.875000 24190.552734 874009.937500 171 198 144
395490.281250 24311.851562 878392.562500 175 203 147
398001.906250 24408.552734 881886.312500 179 207 150
402252.375000 24611.185547 889207.500000 178 206 148
405402.312500 24745.693359 894067.312500 181 210 152
410597.343750 25004.109375 903403.937500 187 216 160
419785.000000 25503.890625 921461.125000 192 222 166
428696.218750 25984.583984 938828.687500 181 212 156
444146.468750 26858.472656 970402.437500 164 194 141
459852.500000 27743.738281 1002387.312500 154 184 132
474974.187500 28589.730469 1032953.250000 139 170 119
488809.625000 29354.576172 1060587.250000 132 163 115
494161.750000 29607.617188 1069729.750000 136 165 119
501242.468750 29962.830078 1082563.625000 140 169 123
507001.468750 30237.582031 1092490.500000 145 174 129
511564.937500 30439.939453 1099801.625000 135 164 120
702633.500000 40067.371094 1447642.875000 167 150 105
710253.812500 40413.300781 1460141.375000 198 178 135
719627.500000 40857.269531 1476182.000000 214 193 150
724528.875000 41045.941406 1482998.750000 221 200 159
729352.125000 41229.375000 1489626.250000 228 207 169
732211.375000 41301.230469 1492222.375000 237 216 180
734020.250000 41313.656250 1492671.375000 248 226 192
736531.312500 41365.460938 1494543.125000 253 235 202
738556.125000 41389.796875 1495422.375000 255 248 214
742739.875000 41534.757812 1500659.875000 255 254 218
747160.000000 41692.285156 1506351.375000 221 216 179
753246.062500 41941.902344 1515370.000000 183 179 149
762201.062500 42349.855469 1530109.500000 172 166 142
770333.812500 42710.484375 1543139.000000 154 148 126
3453409.750000 416252.625000 14482421.000000 255 253 254
3491214.500000 418939.593750 14575907.000000 255 253 254
3556671.750000 424906.343750 14783504.000000 255 253 253
3623976.750000 431040.343750 14996921.000000 254 254 252
3667331.500000 434284.343750 15109787.000000 254 254 252
3679421.000000 433813.750000 15093414.000000 254 255 251
3676242.000000 431554.906250 15014823.000000 254 255 249
3661225.000000 427931.937500 14888772.000000 253 254 247
3650953.250000 424892.468750 14783021.000000 253 254 246
3665728.750000 424781.500000 14779160.000000 253 254 247
3700800.500000 427013.343750 14856812.000000 253 255 245
3736875.750000 429341.531250 14937815.000000 254 255 242
3759008.250000 430054.812500 14962631.000000 254 255 240
3783414.250000 431021.125000 14996251.000000 254 255 240
3821525.250000 433534.062500 15083682.000000 254 255 238
3859465.750000 436006.687500 15169712.000000 254 255 237
3902724.000000 439057.000000 15275839.000000 254 255 237
3936664.000000 441038.031250 15344764.000000 254 255 234
3966638.750000 442560.281250 15397726.000000 253 255 233
3999340.500000 444373.031250 15460796.000000 253 255 233
4023886.000000 445268.343750 15491946.000000 253 255 233
4050403.000000 446373.656250 15530403.000000 253 255 233
4075187.500000 447279.812500 15561930.000000 255 254 233
4095342.250000 447672.562500 15575595.000000 255 254 233
4112701.000000 447757.750000 15578558.000000 255 254 233
4125811.500000 447381.562500 15565470.000000 255 255 230
4128665.000000 445900.593750 15513944.000000 255 254 232
4123395.000000 443557.625000 15432426.000000 255 255 231
4123143.750000 441770.968750 15370264.000000 255 255 230
4139942.750000 441818.000000 15371901.000000 255 255 228
4170854.000000 443364.875000 15425720.000000 255 255 228
4204242.500000 445161.843750 15488241.000000 255 255 230
4232967.500000 446453.000000 15533163.000000 255 255 227
4256170.500000 447153.906250 15557550.000000 255 255 227
4273645.000000 447249.875000 15560889.000000 255 255 227
4284278.000000 446631.906250 15539388.000000 255 255 228
4285120.000000 445001.937500 15482678.000000 255 255 229
4283912.500000 443172.375000 15419023.000000 255 255 229
4281185.000000 441200.156250 15350405.000000 255 255 229
4280865.500000 439490.156250 15290910.000000 255 255 228
4290036.500000 438763.750000 15265636.000000 255 255 227
4290077.000000 437112.562500 15208187.000000 255 255 227
4290751.500000 435538.093750 15153408.000000 255 255 227
4288608.500000 433690.468750 15089125.000000 255 255 227
4280968.000000 431302.812500 15006053.000000 255 255 229
4280213.000000 429624.000000 14947642.000000 255 255 229
4270663.500000 427078.187500 14859067.000000 255 255 229
4267282.000000 425165.656250 14792526.000000 255 255 230
4263240.500000 423201.656250 14724194.000000 255 255 228
4251971.000000 420537.187500 14631491.000000 255 255 226
4248864.000000 418696.531250 14567450.000000 255 255 227
4240003.000000 416304.312500 14484219.000000 255 255 227
4242358.500000 415026.687500 14439768.000000 255 255 227
4241594.000000 413454.218750 14385057.000000 255 255 227
4227115.500000 410561.031250 14284397.000000 255 255 227
4217072.000000 408117.843750 14199392.000000 255 255 227
4185542.250000 403620.062500 14042904.000000 255 255 227
4155894.000000 399335.125000 13893820.000000 255 255 227
4128487.750000 395295.250000 13753263.000000 255 255 227
4105352.500000 391691.406250 13627877.000000 255 255 227
4104789.750000 390258.968750 13578039.000000 255 255 227
4089325.000000 387424.781250 13479430.000000 255 255 227
4079477.250000 385140.687500 13399962.000000 255 255 227
4062289.250000 382181.937500 13297020.000000 255 255 227
4027950.000000 377635.781250 13138848.000000 255 255 225
4003279.250000 374024.343750 13013198.000000 255 255 225
3956330.750000 368363.593750 12816247.000000 255 255 225
3922189.500000 363930.125000 12661996.000000 255 255 225
3887164.250000 359445.250000 12505956.000000 255 255 225
3840970.250000 353961.750000 12315172.000000 255 255 225
3816191.250000 350482.312500 12194114.000000 255 255 225
3775190.250000 345541.656250 12022217.000000 255 255 225
3749436.000000 342025.187500 11899871.000000 255 255 225
3724693.500000 338624.375000 11781549.000000 255 255 225
3693130.750000 334628.437500 11642520.000000 255 255 225
3679990.500000 332322.843750 11562303.000000 255 255 224
3620567.000000 325866.937500 11337687.000000 254 255 224
3553757.000000 318791.312500 11091509.000000 254 255 224
3482854.750000 311396.656250 10834231.000000 254 255 224
3407807.250000 303681.406250 10565799.000000 254 255 224
3368963.500000 299232.500000 10411012.000000 254 255 224
3339883.750000 295677.187500 10287314.000000 254 255 224
3336282.750000 294393.375000 10242646.000000 254 255 224
3358660.750000 295402.812500 10277767.000000 254 255 224
3405978.750000 298592.125000 10388731.000000 255 255 225
3467185.750000 302974.437500 10541203.000000 255 255 225
3480277.500000 303137.593750 10546879.000000 255 255 227
3550823.000000 308287.937500 10726071.000000 254 254 228
3418516.500000 295849.781250 10293318.000000 255 254 231
3176037.750000 273986.875000 9532656.000000 255 254 236
2957930.250000 254358.890625 8849752.000000 255 254 238
2115538.500000 181342.375000 6309333.000000 255 254 240
1632519.750000 139495.609375 4853384.500000 255 254 242
1189896.250000 101353.617188 3526333.750000 252 255 238
821704.687500 69771.531250 2427518.000000 250 255 233
646130.875000 54691.484375 1902847.000000 249 255 233
537996.500000 45396.210938 1579442.375000 235 252 219
506140.218750 42575.152344 1481290.875000 225 250 211
499623.312500 41896.468750 1457678.000000 221 249 211
483065.906250 40382.640625 1405008.250000 196 227 188
478132.593750 39846.890625 1386368.250000 164 197 154
473349.718750 39326.933594 1368277.750000 168 197 149
472321.687500 39121.171875 1361118.750000 177 204 152
473047.937500 39061.523438 1359043.500000 190 217 167
471043.281250 38777.425781 1349159.000000 198 223 175
469630.593750 38543.640625 1341025.125000 204 231 184
468005.218750 38293.871094 1332335.000000 225 253 212
467704.531250 38153.667969 1327457.000000 222 250 210
468245.531250 38082.765625 1324990.125000 203 231 190
468924.593750 38023.484375 1322927.625000 183 211 169
470453.437500 38033.261719 1323267.750000 177 202 158
471391.968750 37995.394531 1321950.375000 181 203 154
472567.875000 37976.832031 1321304.500000 192 213 161
472604.625000 37867.105469 1317486.875000 200 220 167
469885.750000 37537.890625 1306032.625000 191 213 159
466780.281250 37179.820312 1293574.500000 186 209 155
465891.375000 36999.890625 1287314.375000 192 215 162
469307.531250 37161.914062 1292951.500000 192 215 160
473362.500000 37373.421875 1300310.375000 188 211 157
473951.781250 37310.871094 1298134.000000 192 214 160
472727.593750 37106.335938 1291017.750000 193 215 158
472836.312500 37007.308594 1287572.375000 192 215 156
476669.468750 37199.507812 1294259.500000 194 215 158
478929.062500 37268.152344 1296647.875000 197 216 161
480297.312500 37267.246094 1296616.250000 198 217 161
481005.968750 37215.308594 1294809.250000 195 213 157
454848.593750 35090.988281 1220899.125000 200 215 159
419136.593750 32243.744141 1121836.625000 224 236 182
384840.031250 29521.251953 1027114.687500 245 253 203
358604.062500 27430.761719 954381.562500 251 255 210
347667.000000 26519.039062 922660.500000 253 254 211
338538.750000 25750.035156 895905.062500 254 252 211
336239.812500 25503.343750 887322.062500 255 255 214
337673.531250 25540.357422 888609.875000 255 254 213
336995.875000 25417.916016 884349.812500 255 254 210
337290.750000 25369.302734 882658.437500 253 255 208
337406.875000 25307.554688 880510.125000 248 255 204
337816.187500 25268.076172 879136.562500 245 254 201
338343.968750 25237.654297 878078.125000 239 251 196
338565.156250 25184.593750 876232.000000 231 247 197
338978.218750 25146.058594 874891.250000 225 243 198
339388.875000 25107.554688 873551.625000 221 239 193
340134.093750 25093.945312 873078.125000 216 234 187
340938.375000 25084.757812 872758.437500 211 229 182
341502.343750 25057.984375 871826.937500 211 227 181
342108.718750 25034.458984 871008.437500 206 222 177
342544.375000 24998.601562 869760.875000 200 215 170
343049.218750 24967.976562 868695.375000 198 211 167
343613.562500 24941.832031 867785.750000 193 206 163
344203.250000 24917.660156 866944.812500 188 201 155
345004.218750 24908.875000 866639.125000 187 198 153
345796.156250 24899.486328 866312.437500 184 196 150
346637.000000 24893.660156 866109.750000 179 191 142
347538.625000 24892.216797 866059.500000 173 185 137
348451.625000 24891.593750 866037.875000 168 180 132
349403.468750 24893.744141 866112.625000 165 177 127
350381.187500 24897.718750 866250.937500 162 173 123
351357.250000 24901.556641 866384.437500 160 170 120
352333.875000 24905.412109 866518.625000 157 167 117
353309.000000 24909.144531 866648.500000 156 164 115
354256.937500 24910.945312 866711.125000 157 164 115
355187.500000 24911.517578 866731.062500 156 164 117
356089.375000 24910.080078 866681.000000 153 162 116
356986.156250 24908.292969 866618.812500 150 159 112
357907.937500 24908.257812 866617.625000 145 156 110
358845.250000 24909.298828 866653.812500 140 154 107
359788.687500 24910.757812 866704.625000 140 153 107
360742.156250 24912.902344 866779.250000 141 155 110
361670.031250 24913.275391 866792.187500 141 157 111
362555.875000 24910.757812 866704.625000 139 156 109
363420.156250 24906.775391 866566.000000 139 157 109
364206.437500 24897.478516 866242.625000 140 158 110
364994.343750 24888.341797 865924.687500 140 159 107
365754.156250 24877.339844 865541.937500 142 160 108
366477.843750 24863.941406 865075.750000 144 162 110
367263.343750 24854.792969 864757.500000 140 159 105
367997.875000 24842.251953 864321.125000 141 159 104
368807.125000 24834.804688 864062.000000 145 163 108
369594.531250 24825.923828 863753.062500 145 164 109
370266.437500 24809.351562 863176.437500 146 166 113
370971.406250 24795.070312 862679.500000 146 169 117
371625.906250 24777.494141 862068.000000 147 169 118
372361.781250 24765.416016 861647.812500 147 168 116
373152.312500 24757.023438 861355.812500 146 169 115
373932.125000 24747.964844 861040.625000 148 168 115
374794.718750 24744.414062 860917.125000 147 169 114
375743.968750 24746.587891 860992.750000 149 172 116
376725.968750 24750.902344 861142.875000 153 176 119
377820.625000 24762.580078 861549.125000 152 176 118
379031.250000 24781.783203 862217.312500 150 174 116
380223.906250 24799.722656 862841.437500 148 172 114
381578.468750 24828.109375 863829.062500 152 177 119
382831.812500 24849.789062 864583.375000 156 181 123
384121.312500 24873.708984 865415.562500 155 182 123
385476.656250 24901.763672 866391.687500 155 182 124
386663.593750 24918.833984 866985.562500 156 184 125
388392.718750 24970.681641 868789.437500 160 188 131
390059.781250 25018.300781 870446.312500 167 194 139
392150.781250 25092.822266 873039.062500 168 195 139
394855.156250 25206.146484 876981.875000 173 202 143
397272.750000 25300.673828 880270.687500 178 206 147
400888.406250 25470.875000 886192.375000 179 208 149
403388.906250 25569.591797 889627.000000 184 214 155
407389.875000 25762.732422 896346.875000 182 212 154
414169.312500 26130.267578 909134.250000 186 215 157
420636.875000 26476.457031 921179.000000 189 219 161
434137.656250 27262.707031 948534.500000 179 210 153
449575.968750 28166.697266 979986.500000 165 195 140
465542.281250 29099.505859 1012441.125000 145 174 122
480019.500000 29935.144531 1041515.000000 138 166 116
485981.156250 30237.105469 1052020.875000 141 169 120
494641.125000 30705.175781 1068306.250000 139 167 119
502452.250000 31118.529297 1082687.750000 142 169 123
508829.187500 31441.371094 1093920.250000 134 160 115
515452.000000 31777.896484 1105628.750000 123 149 104
539812.312500 32682.853516 1137114.250000 137 144 111
544498.437500 32892.832031 1144420.000000 138 143 111
549671.312500 33131.214844 1152713.875000 142 146 114
553423.812500 33283.113281 1157998.750000 167 169 139
558851.125000 33534.832031 1166756.750000 191 191 164
563506.500000 33739.222656 1173867.875000 205 205 179
568436.875000 33959.132812 1181519.125000 215 213 188
574821.562500 34264.765625 1192152.750000 214 211 186
579772.875000 34483.796875 1199773.375000 214 210 185
585754.312500 34763.000000 1209487.625000 226 220 195
590438.625000 34964.164062 1216486.625000 243 238 216
594091.812500 35103.523438 1221335.250000 255 252 231
597689.312500 35238.992188 1226048.500000 255 255 236
599617.187500 35275.648438 1227323.750000 255 255 237
601138.500000 35288.277344 1227763.250000 255 255 239
601968.062500 35260.332031 1226790.875000 255 255 240
602632.187500 35222.835938 1225486.250000 255 255 242
603681.812500 35207.984375 1224969.750000 255 255 244
605012.875000 35209.582031 1225025.125000 255 255 244
608141.812500 35315.570312 1228712.750000 255 255 245
611368.375000 35426.765625 1232581.500000 255 254 243
616552.937500 35650.699219 1240372.750000 254 252 246
623251.812500 35961.046875 1251170.500000 255 255 254
629009.375000 36215.882812 1260036.750000 255 251 247
644937.875000 37053.984375 1289196.375000 216 209 201
662906.562500 38005.496094 1322301.750000 169 163 151
686683.062500 39285.242188 1366827.250000 152 145 126
3430591.500000 428813.500000 14386729.000000 255 253 254
3468363.000000 431608.500000 14480501.000000 255 253 254
3533893.500000 437817.843750 14688826.000000 255 253 253
3601273.500000 444200.656250 14902969.000000 254 254 252
3644550.250000 447567.468750 15015926.000000 254 254 252
3656427.250000 447065.687500 14999091.000000 254 255 250
3653027.250000 444708.500000 14920008.000000 254 255 249
3637878.500000 440947.656250 14793831.000000 253 254 246
3627459.250000 437790.000000 14687892.000000 253 254 246
3642002.250000 437659.156250 14683502.000000 253 254 245
3676834.000000 439957.125000 14760599.000000 253 254 243
3712665.000000 442354.593750 14841034.000000 254 255 240
3734683.500000 443093.031250 14865808.000000 254 255 238
3758926.000000 444087.937500 14899188.000000 254 255 237
3796713.250000 446668.000000 14985749.000000 254 255 237
3834311.000000 449204.250000 15070840.000000 254 255 237
3876866.500000 452297.781250 15174628.000000 254 255 236
3909918.500000 454261.531250 15240512.000000 254 255 233
3939131.250000 455764.812500 15290947.000000 255 254 233
3971479.750000 457617.062500 15353091.000000 255 254 233
3996160.250000 458574.218750 15385203.000000 255 255 231
4022771.000000 459744.125000 15424454.000000 255 255 231
4047496.750000 460690.000000 15456188.000000 255 255 231
4067528.500000 461096.093750 15469812.000000 255 255 231
4084679.000000 461173.593750 15472413.000000 255 255 231
4097528.000000 460766.812500 15458765.000000 255 255 229
4100356.500000 459240.968750 15407572.000000 255 255 230
4095463.000000 456865.812500 15327887.000000 255 255 229
4095369.500000 455042.875000 15266727.000000 255 255 228
4111692.750000 455051.218750 15267007.000000 255 255 228
4141777.000000 456576.500000 15318180.000000 255 255 227
4173581.750000 458278.718750 15375289.000000 255 255 228
4200637.000000 459448.156250 15414524.000000 255 255 227
4222208.000000 460010.968750 15433407.000000 255 255 227
4238310.000000 459975.906250 15432230.000000 255 255 227
4248420.000000 459293.312500 15409330.000000 255 255 229
4248485.500000 457534.250000 15350312.000000 255 255 229
4246564.000000 455575.468750 15284595.000000 255 255 229
4243236.500000 453481.375000 15214338.000000 255 255 229
4242391.500000 451667.562500 15153485.000000 255 255 228
4251347.000000 450906.875000 15127963.000000 255 255 226
4250602.000000 449127.000000 15068248.000000 254 254 226
4249923.000000 447367.437500 15009214.000000 254 254 226
4246808.500000 445365.625000 14942054.000000 255 255 227
4239427.500000 442933.031250 14860440.000000 255 255 227
4239756.500000 441321.062500 14806358.000000 255 255 226
4230898.500000 438768.250000 14720711.000000 255 255 228
4227532.000000 436801.656250 14654732.000000 255 255 229
4222823.500000 434711.406250 14584604.000000 255 255 228
4210180.000000 431822.593750 14487684.000000 255 255 227
4205516.000000 429770.281250 14418829.000000 255 255 227
4195477.500000 427185.687500 14332115.000000 255 255 227
4198189.500000 425913.375000 14289429.000000 255 255 227
4197306.000000 424286.781250 14234857.000000 255 255 227
4180532.750000 421071.468750 14126983.000000 255 255 227
4167580.250000 418262.625000 14032746.000000 255 255 227
4132802.250000 413291.250000 13865956.000000 255 255 227
4101260.750000 408677.750000 13711173.000000 255 255 227
4072484.250000 404371.500000 13566698.000000 255 255 227
4047789.000000 400499.500000 13436792.000000 255 255 227
4046387.000000 398951.343750 13384851.000000 255 255 227
4029820.000000 395924.125000 13283287.000000 255 255 227
4019200.000000 393500.281250 13201968.000000 255 255 225
4001188.500000 390372.218750 13097020.000000 255 255 225
3965416.500000 385539.062500 12934868.000000 255 255 225
3939476.750000 381692.000000 12805799.000000 255 255 225
3891992.750000 375791.281250 12607828.000000 255 255 225
3858813.000000 371307.500000 12457398.000000 255 255 225
3824239.500000 366720.750000 12303512.000000 255 255 225
3774651.750000 360730.468750 12102537.000000 255 255 225
3745102.000000 356689.343750 11966958.000000 254 255 224
3708079.500000 351966.343750 11808500.000000 254 255 224
3694978.500000 349538.187500 11727035.000000 254 255 224
3682858.750000 347218.875000 11649222.000000 255 255 224
3655427.500000 343476.375000 11523661.000000 255 255 225
3638715.000000 340762.750000 11432619.000000 254 255 225
3576148.250000 333787.281250 11198591.000000 254 255 224
3507599.000000 326301.625000 10947447.000000 254 255 224
3436729.500000 318650.406250 10690748.000000 254 255 224
3364727.000000 310944.968750 10432230.000000 254 255 224
3329970.000000 306720.906250 10290512.000000 254 255 224
3303864.250000 303318.718750 10176369.000000 254 255 224
3300422.750000 302012.750000 10132553.000000 254 255 224
3321906.500000 302988.718750 10165296.000000 254 255 224
3366807.500000 306087.250000 10269253.000000 255 255 225
3424767.250000 310349.125000 10412239.000000 255 255 226
3445864.500000 311253.812500 10442592.000000 255 255 225
3522729.000000 317173.781250 10641207.000000 255 255 226
3414337.000000 306429.437500 10280733.000000 255 255 229
3163855.500000 283042.250000 9496091.000000 255 255 234
2926504.500000 260974.921875 8755730.000000 255 254 238
2212498.500000 196676.250000 6598504.500000 255 254 239
1827783.375000 161963.578125 5433891.500000 255 253 240
1369159.750000 120941.351562 4057592.500000 255 255 242
927552.250000 81675.437500 2740217.750000 254 255 237
711801.812500 62481.125000 2096247.000000 249 255 231
576211.500000 50421.140625 1691633.500000 243 254 227
529035.687500 46148.847656 1548297.625000 239 255 225
511015.000000 44438.453125 1490913.875000 229 252 218
488206.687500 42323.601562 1419960.375000 210 238 201
483105.406250 41752.121094 1400787.125000 190 220 179
477201.031250 41114.960938 1379410.375000 168 195 150
474516.531250 40758.281250 1367443.750000 165 192 145
473877.000000 40578.894531 1361425.375000 184 211 165
470266.656250 40146.984375 1346934.625000 198 225 180
467953.625000 39828.113281 1336236.500000 202 229 186
467557.093750 39673.792969 1331059.125000 209 236 195
470864.125000 39833.718750 1336424.625000 226 253 212
474718.406250 40038.839844 1343306.375000 215 242 201
475563.343750 39989.671875 1341656.875000 191 217 176
474812.843750 39807.042969 1335529.625000 181 205 161
473540.718750 39581.902344 1327976.250000 182 206 156
473830.406250 39488.261719 1324834.500000 192 215 161
473392.031250 39334.679688 1319681.875000 202 223 166
470004.531250 38937.687500 1306362.625000 199 220 160
466610.187500 38542.472656 1293103.125000 199 220 160
465714.125000 38355.332031 1286824.625000 203 223 165
469520.968750 38555.476562 1293539.500000 204 223 167
474002.875000 38809.722656 1302069.500000 205 223 170
474582.875000 38743.945312 1299862.500000 202 221 168
473058.062500 38507.214844 1291920.250000 199 218 162
472903.781250 38383.097656 1287756.125000 200 220 160
477288.906250 38627.070312 1295941.375000 199 219 159
479159.468750 38666.718750 1297271.625000 201 220 162
478181.000000 38476.894531 1290903.000000 206 226 169
476004.625000 38192.039062 1281346.125000 207 224 169
445637.656250 35653.417969 1196175.125000 213 228 175
405979.250000 32388.009766 1086620.375000 233 244 192
371389.625000 29544.376953 991216.312500 248 255 206
349274.656250 27706.412109 929552.437500 252 254 210
343806.406250 27195.611328 912415.062500 255 255 212
338557.343750 26704.976562 895954.187500 255 254 210
336628.375000 26478.248047 888347.437500 255 255 212
337258.937500 26453.550781 887518.812500 255 254 211
336565.625000 26325.439453 883220.687500 254 254 209
