ply
		format ascii 1.0
		element vertex 12607
		property float x
		property float y
		property float z
		property uchar red
		property uchar green
		property uchar blue
		end_header
1148708.125000 228999.765625 1721291.375000 226 252 189
1363088.250000 271304.687500 2039279.000000 248 255 213
1528575.625000 303759.093750 2283224.750000 234 252 202
1789014.750000 354949.406250 2668000.000000 152 169 132
610272.500000 127092.593750 947718.312500 143 165 98
591873.500000 123057.515625 917629.062500 133 159 84
613710.937500 127387.585938 949918.000000 128 156 75
615339.250000 127097.476562 947754.687500 130 161 81
616401.187500 127108.460938 947836.562500 157 188 107
617634.250000 127154.648438 948181.000000 151 183 100
618470.687500 127119.148438 947916.312500 127 160 75
619177.687500 127057.226562 947454.500000 126 159 70
620325.062500 127085.695312 947666.812500 139 172 81
621674.062500 127155.335938 948186.125000 139 174 81
623542.250000 127330.757812 949494.250000 144 179 83
625728.187500 127570.398438 951281.187500 166 202 104
627733.687500 127772.539062 952788.562500 191 228 130
631604.937500 128353.171875 957118.312500 203 239 145
632368.375000 128301.398438 956732.250000 209 244 153
639137.000000 129466.234375 965418.312500 208 242 155
655261.750000 132519.500000 988186.250000 173 206 125
673290.937500 135947.500000 1013748.562500 137 168 93
722634.062500 145677.171875 1086301.875000 141 171 99
779700.062500 156930.156250 1170214.375000 166 196 123
864807.437500 173782.140625 1295878.125000 180 210 136
1006653.062500 201963.781250 1506026.125000 191 219 148
1143317.000000 229017.890625 1707766.125000 210 234 171
1378442.125000 275677.562500 2055703.250000 237 255 202
1611424.000000 321761.406250 2399346.500000 220 237 190
1833964.625000 365617.906250 2726380.500000 132 147 106
2351746.500000 465162.750000 3468677.500000 166 172 159
646276.562500 135658.765625 1003630.500000 136 157 97
610074.562500 127848.359375 945847.562500 138 163 92
618476.875000 129395.664062 957294.875000 126 153 73
615855.812500 128213.679688 948550.312500 131 162 84
616909.875000 128222.945312 948618.875000 153 184 106
618212.375000 128283.718750 949068.500000 156 187 107
618899.375000 128216.796875 948573.375000 146 178 94
619415.250000 128114.687500 947817.937500 159 193 104
620239.625000 128076.625000 947536.375000 185 219 126
621374.625000 128102.718750 947729.375000 178 214 117
622916.437500 128212.460938 948541.312500 150 186 89
625120.312500 128457.898438 950357.062500 147 183 85
627413.187500 128720.796875 952302.062500 181 217 118
628374.625000 128710.132812 952223.187500 208 244 147
627267.625000 128276.515625 949015.187500 209 244 152
626502.062500 127913.992188 946333.187500 200 235 146
624594.187500 127319.781250 941937.062500 175 209 124
623013.062500 126793.984375 938047.125000 146 179 97
641194.812500 130285.507812 963878.062500 142 175 93
668503.187500 135617.375000 1003324.375000 160 194 110
715259.000000 144871.187500 1071785.875000 176 211 126
788918.250000 159535.984375 1180279.000000 181 215 132
859180.875000 173468.390625 1283353.625000 176 207 129
979579.125000 197462.859375 1460869.500000 197 223 154
1087534.875000 218877.109375 1619296.375000 234 255 195
1214418.875000 244027.062500 1805360.750000 216 236 177
2281117.750000 454773.468750 3364504.750000 171 180 163
634741.562500 134064.953125 984090.875000 142 167 99
623697.187500 131515.234375 965375.000000 135 163 85
617377.812500 129330.539062 949338.375000 140 171 94
618770.437500 129410.492188 949925.250000 161 193 115
619359.062500 129322.304688 949277.937500 154 187 104
619734.187500 129189.890625 948306.000000 150 184 96
620367.625000 129111.679688 947731.875000 164 199 106
621396.937500 129115.984375 947763.500000 163 199 102
622795.812500 129196.921875 948357.625000 145 181 83
624551.437500 129351.500000 949492.250000 145 181 83
626364.125000 129517.375000 950709.812500 179 215 117
627730.562500 129590.578125 951247.187500 206 242 146
628197.125000 129478.085938 950421.437500 207 242 152
628680.687500 129369.453125 949624.000000 200 233 146
628457.500000 129115.953125 947763.250000 180 214 128
628154.375000 128846.875000 945788.125000 155 191 103
636258.562500 130300.414062 956457.625000 148 184 94
646985.375000 132285.531250 971029.250000 160 197 105
666007.187500 135957.656250 997984.125000 179 218 124
694469.125000 141542.109375 1038976.250000 190 228 134
720086.500000 146529.968750 1075589.125000 180 214 123
770911.937500 156623.421875 1149679.125000 183 214 130
811429.812500 164594.062500 1208186.875000 207 235 159
880727.625000 178368.078125 1309293.750000 215 240 166
1949831.625000 392403.500000 2880400.250000 171 185 149
2198707.000000 441795.031250 3242954.000000 177 189 163
688645.312500 146586.328125 1067662.125000 133 155 93
634248.500000 134784.937500 981706.625000 143 169 95
617899.937500 130451.109375 950141.250000 123 154 79
619418.500000 130558.054688 950920.125000 165 197 120
619901.875000 130446.812500 950109.937500 167 201 120
620188.125000 130294.507812 949000.625000 143 177 90
620633.812500 130176.156250 948138.562500 139 174 80
621507.312500 130147.757812 947931.812500 146 181 84
622688.000000 130183.679688 948193.437500 143 179 81
623957.875000 130238.109375 948589.812500 143 179 81
625292.937500 130305.937500 949083.875000 170 206 109
626858.687500 130421.562500 949926.000000 198 234 140
628532.187500 130559.179688 950928.375000 204 239 149
629936.750000 130640.585938 951521.312500 200 235 146
630810.937500 130611.906250 951312.437500 185 220 130
631266.187500 130496.734375 950473.500000 159 195 103
631293.750000 130293.640625 948994.312500 144 182 87
630241.125000 129868.617188 945898.625000 151 191 93
631025.812500 129822.945312 945566.000000 169 211 109
633407.437500 130105.437500 947623.562500 186 226 124
636713.875000 130576.687500 951055.875000 188 225 125
654132.375000 133935.953125 975523.125000 190 225 127
665901.000000 136129.562500 991500.250000 199 232 139
704339.062500 143759.609375 1047073.750000 207 238 152
806872.125000 164427.031250 1197605.000000 166 195 120
1224521.750000 248751.187500 1811780.375000 153 176 127
1580391.875000 320538.437500 2334643.000000 223 240 197
1989146.875000 402809.687500 2933866.250000 159 174 141
641901.375000 137468.656250 993551.937500 147 171 100
594325.500000 127070.539062 918399.812500 130 158 82
619746.500000 131639.750000 951423.687500 156 187 113
620193.312500 131519.765625 950556.500000 171 205 127
620492.625000 131368.953125 949466.562500 158 192 108
620857.375000 131232.468750 948480.062500 149 184 93
621611.375000 131178.578125 948090.562500 154 189 93
622615.000000 131177.421875 948082.250000 150 186 88
623633.750000 131179.484375 948097.125000 140 176 79
624764.187500 131204.984375 948281.375000 159 194 99
626161.937500 131286.437500 948870.187500 191 226 133
627956.187500 131450.640625 950056.937500 207 242 152
629297.562500 131519.671875 950555.750000 203 237 149
629674.625000 131387.265625 949598.812500 185 220 129
629517.625000 131144.015625 947840.750000 161 198 102
628023.312500 130623.390625 944077.937500 144 184 84
625980.000000 129990.437500 939503.375000 148 190 87
624608.125000 129498.710938 935949.375000 167 210 103
623311.750000 129024.164062 932519.625000 179 222 114
623274.750000 128811.421875 930982.000000 186 227 117
631460.312500 130295.992188 941711.750000 191 229 120
634368.750000 130688.695312 944550.000000 195 232 126
657453.625000 135230.203125 977373.625000 197 232 135
719814.000000 147823.109375 1068388.500000 205 238 149
800234.250000 164079.250000 1185879.625000 221 250 173
992995.187500 203282.156250 1469217.750000 235 255 196
1307996.750000 267347.093750 1932245.750000 203 223 173
654940.500000 141339.953125 1013734.187500 144 168 99
591489.625000 127436.976562 914017.687500 134 162 87
606369.625000 130428.382812 935473.000000 127 156 85
620054.500000 132718.234375 951896.562500 140 171 99
620461.687500 132588.750000 950967.875000 160 193 118
620833.000000 132452.046875 949987.375000 160 195 112
621173.312500 132309.203125 948962.750000 156 191 101
621815.812500 132231.062500 948402.312500 155 191 95
622663.812500 132196.796875 948156.562500 150 186 88
623496.125000 132159.328125 947887.875000 141 177 81
624489.875000 132156.140625 947865.062500 150 186 90
625812.750000 132222.500000 948340.937500 181 216 123
627479.000000 132361.093750 949334.937500 209 243 155
629004.312500 132469.546875 950112.875000 208 242 157
629807.937500 132425.906250 949799.812500 191 225 137
630128.687500 132281.031250 948760.750000 172 209 114
630939.812500 132239.406250 948462.250000 151 191 89
632189.062500 132289.593750 948822.187500 150 192 86
634053.562500 132468.171875 950103.000000 166 209 101
635932.625000 132649.203125 951401.375000 173 217 104
637572.937500 132779.953125 952339.125000 179 223 105
642346.500000 133561.765625 957946.562500 191 233 114
641083.312500 133087.875000 954547.625000 197 237 121
652420.062500 135227.078125 969890.687500 186 223 115
681819.562500 141097.484375 1011995.062500 177 212 115
716737.750000 148089.609375 1062144.750000 192 222 138
850785.562500 175509.250000 1258807.000000 218 243 173
1124174.000000 231542.187500 1660692.625000 196 217 161
595041.000000 129180.718750 919505.562500 130 155 85
620702.187500 133870.984375 952890.812500 135 167 93
620949.000000 133705.781250 951714.812500 156 189 112
621352.750000 133574.812500 950782.687500 161 196 112
621615.875000 133414.125000 949638.812500 155 191 99
622114.250000 133304.359375 948857.500000 156 193 95
622778.250000 133230.375000 948330.875000 158 194 96
623384.250000 133144.234375 947717.750000 148 184 88
624217.750000 133106.890625 947452.000000 144 180 84
625328.250000 133128.640625 947606.812500 165 200 107
626779.312500 133222.703125 948276.375000 200 234 146
628217.187500 133313.671875 948923.875000 207 242 155
629148.687500 133297.062500 948805.625000 193 230 138
629742.312500 133209.046875 948179.062500 179 218 122
630841.500000 133228.062500 948314.437500 154 195 94
632534.125000 133372.156250 949340.062500 145 186 80
634314.625000 133534.281250 950494.125000 158 202 92
635548.875000 133581.093750 950827.312500 165 210 95
636301.937500 133526.765625 950440.562500 171 216 97
637457.750000 133557.000000 950655.812500 184 228 107
633922.250000 132605.796875 943885.187500 187 228 110
638560.750000 133364.750000 949287.375000 192 231 119
648611.687500 135249.921875 962706.000000 202 239 136
660168.187500 137442.593750 978313.437500 198 231 140
765022.250000 159021.718750 1131913.125000 203 229 155
1010866.625000 209793.921875 1493308.500000 184 206 148
602981.250000 131896.156250 931775.375000 136 156 93
612863.375000 133837.671875 945491.125000 131 154 88
621339.625000 134803.390625 952313.500000 143 178 94
621754.125000 134673.656250 951396.937500 170 206 117
621964.000000 134500.062500 950170.687500 161 198 104
622371.375000 134369.687500 949249.625000 154 191 93
622934.250000 134273.265625 948568.437500 158 196 97
623427.687500 134162.203125 947783.875000 150 187 90
624194.062500 134110.140625 947416.062500 136 173 78
625142.625000 134097.328125 947325.562500 152 188 94
626313.812500 134132.234375 947572.125000 195 232 139
627626.812500 134197.359375 948032.125000 207 244 152
628823.375000 134237.390625 948315.000000 191 228 135
629896.062500 134250.906250 948410.500000 180 220 122
631419.437500 134360.296875 949183.250000 161 202 100
633229.750000 134530.281250 950384.125000 148 189 84
635025.812500 134696.703125 951559.812500 156 199 91
636299.500000 134751.968750 951950.250000 167 211 100
637035.312500 134693.343750 951536.062500 177 221 107
638639.687500 134818.250000 952418.437500 188 232 116
636962.875000 134251.187500 948412.500000 192 234 120
641779.625000 135052.406250 954072.562500 193 234 123
646994.187500 135934.656250 960305.312500 201 238 134
651479.062500 136661.062500 965436.937500 201 233 141
747554.625000 156567.937500 1106068.375000 204 230 155
981816.312500 205308.453125 1450393.875000 175 196 140
634361.625000 139803.562500 980266.875000 131 150 91
626444.875000 137832.156250 966443.937500 134 156 92
621650.937500 135884.953125 952790.562500 131 165 78
622240.750000 135792.375000 952141.500000 166 203 110
622497.250000 135627.484375 950985.312500 166 203 108
622781.875000 135469.250000 949875.750000 153 191 95
623171.875000 135334.390625 948930.250000 153 193 94
623515.250000 135189.875000 947916.937500 151 189 92
624202.187500 135120.203125 947428.375000 137 174 79
624983.625000 135071.156250 947084.562500 142 179 85
625909.812500 135053.531250 946960.875000 184 221 128
627094.625000 135091.656250 947228.250000 204 241 147
628425.500000 135161.078125 947715.062500 193 230 135
629803.062500 135240.296875 948270.500000 185 224 127
631666.500000 135423.437500 949554.625000 167 208 107
633665.000000 135634.906250 951037.375000 151 192 87
635596.437500 135831.359375 952414.875000 155 198 91
637012.750000 135917.296875 953017.375000 168 211 102
637798.062500 135868.515625 952675.375000 179 223 111
639664.562500 136049.859375 953946.937500 187 233 120
639393.687500 135776.750000 952031.937500 191 237 124
643993.000000 136537.046875 957362.937500 192 234 124
644299.187500 136386.187500 956305.125000 195 233 128
642180.687500 135723.359375 951657.562500 198 231 137
730947.562500 154240.750000 1081496.875000 201 227 153
957787.375000 201789.562500 1414897.000000 168 188 135
641941.000000 142295.656250 990350.500000 133 153 94
621662.562500 136901.531250 952808.437500 124 157 70
622593.375000 136883.234375 952681.125000 154 190 99
623016.250000 136753.500000 951778.187500 166 203 109
623173.312500 136565.937500 950472.750000 157 194 100
623338.125000 136380.687500 949183.437500 149 189 94
623530.437500 136202.031250 947940.062500 152 190 96
624150.875000 136117.328125 947350.500000 143 179 86
624848.500000 136049.687500 946879.750000 136 173 81
625720.687500 136020.234375 946674.812500 169 206 115
626863.125000 136049.500000 946878.500000 196 232 140
628100.937500 136099.375000 947225.562500 197 234 140
629397.625000 136161.796875 947660.062500 192 231 136
631317.875000 136358.718750 949030.625000 174 214 116
633517.500000 136615.250000 950816.000000 154 195 91
635674.187500 136861.718750 952531.375000 154 196 89
637264.437500 136985.656250 953393.875000 167 210 100
638116.750000 136950.812500 953151.375000 178 222 111
639786.125000 137091.140625 954128.125000 184 231 119
639511.625000 136815.187500 952207.437500 189 236 124
643410.062500 137431.421875 956496.437500 191 234 125
641249.125000 136753.484375 951778.062500 195 233 129
636360.187500 135496.828125 943032.000000 199 232 138
722509.250000 153597.859375 1069011.625000 195 222 145
948392.125000 201301.187500 1401017.750000 153 173 120
662562.875000 147954.640625 1022164.687500 129 149 93
622796.187500 137942.062500 952991.500000 142 177 90
623370.875000 137844.859375 952319.937500 166 202 111
623477.187500 137644.578125 950936.250000 163 201 108
623536.937500 137434.687500 949486.187500 150 189 97
623670.187500 137241.640625 948152.500000 153 191 98
624269.875000 137151.687500 947531.125000 147 183 91
624931.312500 137075.578125 947005.250000 132 168 78
625794.875000 137043.984375 946787.000000 154 190 101
626893.250000 137063.828125 946924.062500 186 222 132
627965.375000 137077.875000 947021.125000 196 233 141
629073.562500 137099.734375 947172.187500 196 236 141
630944.187500 137287.421875 948468.812500 181 222 124
633266.000000 137572.531250 950438.500000 161 201 100
635644.937500 137869.109375 952487.500000 155 197 93
637489.625000 138049.078125 953730.812500 166 209 101
638539.000000 138056.500000 953782.062500 180 224 113
640251.875000 138207.125000 954822.750000 188 234 122
639794.000000 137889.437500 952627.937500 193 239 129
643467.187500 138461.671875 956581.312500 194 237 130
641040.437500 137721.593750 951468.375000 193 230 128
635953.625000 136413.250000 942429.500000 200 234 140
723117.187500 154865.750000 1069911.125000 193 221 143
954221.812500 204038.781250 1409629.750000 141 162 107
613496.250000 137778.812500 944916.125000 136 156 100
604069.937500 135439.843750 928874.937500 126 151 88
622922.937500 138984.562500 953185.375000 136 169 85
623462.375000 138878.765625 952459.750000 164 198 110
623637.812500 138692.343750 951181.250000 169 205 115
623819.500000 138507.921875 949916.437500 154 193 102
624009.812500 138326.000000 948668.812500 154 191 101
624617.562500 138237.062500 948058.812500 149 185 96
625230.687500 138149.593750 947459.000000 133 169 81
626007.625000 138098.546875 947108.875000 145 181 93
627004.812500 138096.171875 947092.562500 173 208 120
627992.437500 138091.687500 947061.875000 192 228 139
629062.812500 138105.421875 947156.000000 196 235 141
630920.625000 138291.687500 948433.437500 185 226 129
633236.250000 138577.531250 950393.875000 169 208 110
635672.562500 138888.843750 952528.937500 158 200 97
637683.437500 139106.375000 954020.750000 165 208 102
638923.000000 139155.203125 954355.687500 180 223 115
640765.500000 139335.000000 955588.687500 190 235 126
640440.500000 139043.656250 953590.562500 195 241 133
643959.062500 139586.359375 957312.562500 196 238 132
640429.375000 138601.953125 950561.375000 190 228 125
633986.375000 136991.171875 939514.250000 200 234 140
721740.625000 155707.453125 1067874.500000 194 222 144
960462.812500 206883.312500 1418849.250000 129 149 96
612633.000000 138589.171875 943586.500000 140 158 107
601650.312500 135881.937500 925154.250000 129 150 93
622870.000000 139987.109375 953104.437500 129 161 81
623248.750000 139844.484375 952133.375000 155 189 105
623576.312500 139690.875000 951087.500000 169 205 117
624030.437500 139566.046875 950237.625000 160 196 108
624369.375000 139415.921875 949215.437500 155 191 103
625019.500000 139335.656250 948668.937500 150 186 98
625620.875000 139244.781250 948050.250000 138 174 87
626322.000000 139176.359375 947584.437500 140 176 90
627230.937500 139154.281250 947434.125000 162 198 110
628202.500000 139146.156250 947378.750000 185 221 133
629312.437500 139168.625000 947531.750000 195 231 140
631143.062500 139350.171875 948767.750000 190 228 133
633331.062500 139609.906250 950536.187500 177 217 118
635679.312500 139904.078125 952539.062500 162 205 102
637747.437500 140135.750000 954116.500000 164 207 102
639135.375000 140217.484375 954672.875000 181 224 117
641212.875000 140450.000000 956255.937500 192 237 129
641101.687500 140203.109375 954575.000000 196 242 134
644806.562500 140790.234375 958572.437500 195 238 133
641101.062500 139760.031250 951558.312500 186 224 123
634275.437500 138053.968750 939942.625000 198 231 138
723623.375000 157253.093750 1070660.125000 193 221 145
616182.375000 140402.140625 949053.250000 131 149 103
601413.687500 136812.718750 924790.437500 130 151 97
623085.812500 140820.984375 951884.437500 143 177 95
623603.875000 140709.296875 951129.500000 163 199 114
624424.312500 140666.078125 950837.375000 162 198 111
625033.375000 140575.468750 950224.937500 154 190 102
625833.437500 140528.046875 949904.375000 150 186 99
626429.937500 140435.125000 949276.250000 144 180 93
626935.812500 140322.234375 948513.125000 140 176 89
627602.875000 140245.718750 947995.937500 149 185 98
628478.625000 140216.015625 947795.187500 175 211 124
629625.312500 140246.734375 948002.812500 191 227 137
631408.250000 140418.875000 949166.437500 193 230 137
633441.875000 140646.125000 950702.437500 186 226 129
635673.250000 140916.484375 952530.000000 168 210 108
637771.687500 141156.546875 954152.750000 165 206 101
639297.000000 141269.218750 954914.375000 181 224 117
641525.125000 141536.578125 956721.562500 193 239 130
641489.125000 141304.375000 955151.937500 197 243 136
645255.312500 141909.093750 959239.562500 195 238 135
641275.250000 140810.984375 951816.875000 183 222 122
634038.937500 139002.468750 939592.125000 196 229 138
725230.937500 158744.437500 1073038.625000 196 224 148
600977.312500 137696.953125 924119.437500 132 151 102
623086.875000 141834.281250 951886.125000 127 161 81
623728.875000 141749.953125 951320.125000 154 189 105
624815.312500 141766.734375 951432.750000 161 197 110
625742.187500 141747.328125 951302.500000 153 189 101
626807.687500 141759.328125 951383.000000 149 184 97
627418.125000 141668.531250 950773.687500 149 184 98
627620.625000 141486.093750 949549.250000 141 176 89
627904.562500 141322.531250 948451.687500 141 175 88
628594.562500 141250.765625 947970.000000 166 202 113
629753.125000 141284.343750 948195.312500 187 223 132
631491.375000 141447.656250 949291.375000 196 234 139
633426.500000 141654.484375 950679.437500 194 234 137
635576.062500 141908.515625 952384.312500 173 214 113
637655.312500 142146.093750 953978.687500 163 204 99
639225.812500 142269.656250 954808.000000 181 224 117
641414.750000 142530.250000 956556.937500 195 240 132
641231.687500 142263.781250 954768.562500 196 242 136
644876.500000 142846.062500 958676.437500 195 237 136
640702.250000 141697.234375 950966.375000 182 220 122
633309.812500 139841.437500 938511.562500 192 226 134
725676.250000 159984.593750 1073697.500000 197 225 149
989064.000000 217708.968750 1461100.500000 127 149 94
606158.937500 139876.156250 932087.187500 132 150 104
625360.062500 144071.203125 960041.562500 129 150 95
623856.500000 142791.609375 951514.750000 148 182 99
625176.812500 142861.921875 951983.250000 158 194 107
626322.312500 142892.109375 952184.437500 150 186 99
627547.062500 142940.250000 952505.250000 150 183 98
628165.125000 142850.281250 951905.750000 154 187 101
628185.000000 142624.781250 950403.062500 140 174 87
628235.625000 142406.984375 948951.750000 130 164 76
628813.187500 142309.140625 948299.687500 159 194 105
629978.812500 142344.468750 948535.125000 189 225 132
631674.562500 142499.281250 949566.812500 201 238 142
633528.875000 142689.312500 950833.062500 203 242 143
635599.312500 142927.343750 952419.187500 177 218 116
637637.687500 143157.406250 953952.312500 161 203 98
639218.625000 143284.203125 954797.250000 179 221 114
641315.375000 143526.046875 956408.750000 194 238 132
640943.750000 143215.562500 954339.875000 194 238 136
644424.875000 143765.578125 958005.000000 193 236 136
640074.000000 142569.390625 950033.937500 179 218 121
632583.125000 140678.656250 937434.687500 187 221 130
725719.500000 161136.890625 1073761.500000 195 224 146
993260.125000 220194.203125 1467299.250000 128 150 94
628410.500000 145800.671875 964724.437500 137 158 105
623879.875000 143809.656250 951550.375000 140 173 93
625474.687500 143943.625000 952436.812500 158 193 108
626592.937500 143967.671875 952595.937500 153 189 101
627636.312500 143974.437500 952640.750000 146 181 94
628208.750000 143873.359375 951971.875000 151 184 98
628378.312500 143680.453125 950695.500000 141 176 89
628619.687500 143504.593750 949531.812500 130 164 77
629300.562500 143429.453125 949034.687500 151 186 97
630476.625000 143467.234375 949284.687500 182 218 126
632137.187500 143614.968750 950262.250000 202 239 144
633914.187500 143788.640625 951411.375000 208 245 148
635905.500000 144010.296875 952878.000000 182 221 120
637934.625000 144239.796875 954396.500000 159 201 96
639561.937500 144377.859375 955310.000000 179 222 115
641642.937500 144617.734375 956897.250000 194 238 132
641214.937500 144292.265625 954743.625000 189 234 132
644582.500000 144820.578125 958239.375000 190 233 134
639853.500000 143531.015625 949706.687500 178 216 121
631956.312500 141535.937500 936505.812500 185 219 129
725673.812500 162269.437500 1073693.875000 195 225 147
997566.562500 222717.234375 1473661.000000 132 154 98
631250.000000 147490.843750 969083.625000 140 159 109
623812.687500 144806.765625 951447.937500 125 158 78
625562.437500 144977.609375 952570.437500 156 190 106
626448.062500 144947.953125 952375.687500 164 198 111
627108.625000 144866.406250 951839.812500 147 181 94
627616.375000 144749.875000 951074.187500 143 177 89
628150.812500 144639.875000 950351.375000 145 179 93
628856.875000 144569.656250 949890.062500 141 175 88
629776.312500 144548.671875 949752.125000 144 179 89
630957.812500 144587.796875 950009.250000 165 201 107
632607.437500 144733.890625 950969.125000 193 230 135
634356.187500 144902.171875 952074.750000 208 246 149
636309.750000 145116.609375 953483.750000 182 221 119
638346.812500 145349.375000 955013.187500 158 199 93
640007.125000 145495.765625 955975.062500 179 221 114
642110.437500 145742.250000 957594.500000 196 240 135
641728.312500 145424.687500 955508.000000 189 234 132
645056.562500 145947.640625 958944.062500 190 232 134
640008.062500 144576.656250 949936.062500 179 217 123
631721.812500 142479.734375 936158.312500 188 222 133
725428.312500 163356.843750 1073330.625000 204 233 156
998672.250000 224534.203125 1475294.375000 131 153 98
637537.375000 150001.515625 978735.875000 131 149 102
625794.187500 146045.484375 952923.375000 146 179 95
626492.500000 145971.875000 952443.187500 165 199 112
626948.937500 145842.265625 951597.437500 160 194 107
627471.500000 145728.421875 950854.687500 151 184 98
628284.562500 145682.296875 950553.687500 147 181 93
629326.812500 145689.390625 950600.000000 141 176 86
630425.750000 145709.546875 950731.500000 137 172 81
631613.250000 145750.093750 950996.062500 151 187 94
633235.875000 145890.750000 951913.875000 185 222 127
634925.375000 146046.328125 952929.000000 209 247 149
636817.875000 146248.062500 954245.187500 190 228 127
638863.562500 146484.250000 955786.312500 159 200 93
640578.625000 146644.015625 956828.687500 172 215 107
642707.375000 146897.812500 958484.750000 195 238 133
642393.750000 146593.453125 956498.875000 195 238 137
645629.937500 147098.859375 959796.500000 193 235 138
640028.062500 145592.187500 949965.750000 181 220 126
631086.312500 143331.734375 935216.562500 188 222 133
724463.000000 164280.265625 1071902.375000 204 234 156
998586.562500 226084.906250 1475167.875000 138 160 103
607479.312500 143687.140625 931070.125000 131 152 97
626026.562500 147114.234375 953277.187500 131 163 81
626693.625000 147032.718750 952748.937500 162 195 109
627269.750000 146930.156250 952084.375000 169 202 116
627895.000000 146839.421875 951496.437500 156 190 103
628734.562500 146799.000000 951234.562500 148 182 95
629778.937500 146806.468750 951282.875000 143 178 90
630891.937500 146829.875000 951434.562500 135 169 80
632085.062500 146871.843750 951706.437500 138 174 82
633683.750000 147007.734375 952587.062500 169 206 112
635317.437500 147151.312500 953517.437500 209 246 149
637164.062500 147343.671875 954763.937500 199 238 137
639223.375000 147584.531250 956324.625000 163 203 99
640993.562500 147757.968750 957448.437500 169 212 106
643140.312500 148017.515625 959130.312500 193 236 132
642866.562500 147720.078125 957202.875000 194 235 137
646005.062500 148206.390625 960354.125000 191 233 137
639942.812500 146583.671875 949839.250000 181 220 127
630471.937500 144186.531250 934306.125000 189 223 136
723495.125000 165200.031250 1070470.250000 207 237 159
997949.250000 227509.578125 1474226.375000 143 166 108
603188.125000 143656.046875 924493.062500 133 152 98
615245.312500 146288.968750 941437.250000 130 154 93
627000.250000 148119.125000 953215.062500 153 186 101
627803.000000 148069.187500 952893.750000 167 201 114
628553.000000 148007.000000 952493.562500 157 191 104
629324.625000 147950.078125 952127.250000 149 183 96
630248.500000 147929.093750 951992.125000 148 182 95
631309.500000 147940.312500 952064.312500 139 173 87
632502.625000 147982.390625 952335.125000 131 166 77
634068.312500 148111.359375 953165.125000 153 190 96
635639.125000 148241.125000 954000.187500 205 242 146
637434.937500 148422.859375 955169.750000 210 248 149
639492.437500 148664.859375 956727.125000 168 208 106
641303.625000 148848.906250 957911.625000 171 213 109
643460.625000 149112.515625 959608.062500 194 236 134
643251.375000 148827.812500 957775.812500 188 231 132
646289.375000 149294.125000 960776.812500 183 226 130
639717.687500 147542.625000 949505.062500 178 217 125
629658.000000 144993.453125 933099.937500 187 222 135
721990.375000 165993.343750 1068244.000000 208 238 161
995421.250000 228498.234375 1470491.875000 151 175 116
615105.875000 147257.531250 941223.875000 136 159 100
627366.562500 149220.718750 953772.000000 138 170 88
628292.250000 149199.500000 953636.312500 159 192 108
629121.937500 149155.593750 953355.687500 158 191 107
629879.812500 149094.812500 952967.250000 151 184 99
630761.062500 149063.390625 952766.375000 149 182 97
631800.812500 149069.484375 952805.312500 145 178 93
632987.187500 149110.078125 953064.750000 131 165 78
634501.562500 149227.687500 953816.500000 135 172 81
635991.437500 149339.156250 954529.000000 191 228 134
637711.250000 149504.187500 955583.812500 213 251 154
639735.000000 149739.843750 957090.062500 169 209 110
641562.750000 149928.937500 958298.625000 165 207 105
643717.750000 150193.796875 959991.500000 192 234 133
643616.625000 149932.234375 958319.687500 190 232 134
646551.250000 150377.562500 961166.125000 182 224 128
639323.937500 148461.703125 948920.625000 174 214 121
628493.375000 145716.484375 931374.062500 184 218 130
719850.687500 166634.937500 1065078.125000 204 234 155
991621.000000 229184.906250 1464877.875000 147 171 111
616168.687500 148515.406250 942850.187500 137 159 105
628594.812500 150286.765625 954095.562500 149 180 101
629442.687500 150246.765625 953841.687500 161 192 112
630190.437500 150183.046875 953437.187500 152 184 102
631051.875000 150146.578125 953205.687500 145 176 94
632074.062500 150148.406250 953217.312500 145 178 94
633249.750000 150186.656250 953460.062500 134 168 82
634722.250000 150295.046875 954148.187500 124 159 71
636156.562500 150394.078125 954776.875000 177 213 121
637819.437500 150546.718750 955746.000000 214 251 156
639797.062500 150773.062500 957182.875000 174 213 117
641609.187500 150959.750000 958368.062500 160 201 102
643751.062500 151223.296875 960041.187500 187 229 129
643744.625000 150982.156250 958510.312500 197 238 141
646625.750000 151417.937500 961276.875000 186 228 133
638950.937500 149384.406250 948367.062500 174 214 121
627586.000000 146495.906250 930029.375000 181 216 128
718127.562500 167366.859375 1062528.625000 200 230 151
988102.937500 229925.281250 1459680.875000 148 173 110
619748.312500 150387.468750 948327.687500 129 150 98
629130.000000 151430.984375 954907.875000 139 170 92
629987.000000 151392.718750 954666.625000 160 191 112
630697.562500 151319.437500 954204.437500 152 183 103
631508.875000 151270.500000 953895.937500 139 169 89
632491.312500 151262.671875 953846.562500 141 173 92
633650.750000 151297.125000 954063.812500 136 171 86
635054.625000 151389.734375 954647.812500 121 156 69
636393.000000 151466.484375 955131.750000 163 198 110
637964.062500 151598.250000 955962.687500 210 246 156
639884.625000 151812.531250 957313.875000 181 221 126
641695.500000 152000.140625 958496.937500 162 203 107
643825.625000 152262.671875 960152.375000 185 226 130
643958.312500 152052.703125 958828.437500 198 239 143
646731.125000 152465.828125 961433.562500 189 231 135
638379.937500 150259.328125 947519.500000 176 216 123
626225.937500 147166.093750 928013.937500 185 220 132
715175.812500 167805.078125 1058161.250000 204 235 155
980645.125000 229731.640625 1448663.625000 153 178 115
625459.250000 152543.437500 955510.375000 128 153 93
623948.125000 151927.875000 951654.562500 126 153 87
629580.125000 152556.328125 955591.187500 127 158 82
630443.687500 152519.203125 955358.562500 150 181 104
631113.750000 152435.468750 954834.062500 149 180 102
631872.750000 152373.453125 954445.625000 137 168 89
632821.500000 152357.312500 954344.500000 139 171 92
633972.937500 152389.953125 954548.937500 140 174 92
635323.750000 152470.328125 955052.375000 125 158 75
636575.250000 152526.656250 955405.250000 153 188 102
638071.250000 152641.281250 956123.312500 197 233 145
639974.750000 152852.875000 957448.687500 187 226 133
641825.250000 153051.171875 958690.812500 170 210 115
643956.125000 153315.578125 960346.937500 182 222 127
644164.375000 153122.125000 959135.250000 194 235 139
646806.500000 153506.937500 961545.562500 187 229 133
637898.750000 151153.703125 946805.250000 177 218 124
625123.937500 147893.015625 926380.812500 189 225 136
712831.750000 168377.546875 1054693.000000 213 244 162
974834.437500 229903.015625 1440079.750000 168 193 128
625369.812500 153538.375000 955373.687500 125 150 92
623211.875000 152760.203125 950531.562500 128 154 91
630919.625000 153651.875000 956079.875000 138 168 92
631534.937500 153554.078125 955471.375000 145 176 100
632233.250000 153476.750000 954990.187500 138 170 92
633134.000000 153448.734375 954815.812500 142 172 93
634268.937500 153477.468750 954994.625000 144 175 96
635559.437500 153543.687500 955406.750000 127 159 78
636727.500000 153580.171875 955633.687500 138 173 89
638147.375000 153677.171875 956237.312500 178 213 128
640008.812500 153880.046875 957499.687500 184 220 131
641866.562500 154081.375000 958752.437500 170 209 116
643993.750000 154346.656250 960403.125000 176 217 120
644321.937500 154180.609375 959369.875000 193 234 137
646869.875000 154545.406250 961639.812500 189 230 135
637471.875000 152059.515625 946171.687500 177 217 124
624136.312500 148643.718750 924917.250000 190 226 137
710115.750000 168854.203125 1050674.500000 216 247 166
966124.875000 229367.906250 1427213.500000 172 197 133
622112.625000 153500.593750 948855.000000 132 154 95
631509.312500 154813.953125 956973.500000 134 161 89
632054.375000 154698.078125 956257.250000 145 175 100
632682.437500 154602.875000 955668.687500 142 173 94
633510.062500 154556.640625 955382.937500 140 171 88
634607.687500 154576.328125 955504.625000 140 171 89
635814.250000 154622.453125 955789.687500 130 161 82
636895.625000 154638.046875 955886.125000 135 168 89
638224.750000 154713.625000 956353.250000 161 195 114
639975.312500 154890.968750 957449.500000 178 213 126
641760.187500 155076.031250 958593.500000 174 210 118
643878.062500 155340.859375 960230.562500 172 211 115
644468.250000 155236.859375 959587.687500 188 229 132
647005.562500 155601.484375 961841.500000 191 231 136
637066.562500 152969.171875 945570.062500 182 220 127
623049.750000 149367.578125 923307.062500 190 226 137
706380.000000 169078.203125 1045147.125000 216 246 167
952602.062500 227655.125000 1407236.875000 182 205 142
621200.375000 154283.843750 947463.625000 133 152 96
631886.937500 155925.609375 957545.687500 127 151 84
632380.312500 155796.093750 956750.375000 147 174 101
632963.375000 155689.046875 956092.937500 149 179 98
633731.062500 155627.687500 955716.250000 139 171 84
634791.687500 155638.359375 955781.750000 134 167 80
635937.437500 155669.828125 955974.937500 133 164 83
636975.437500 155674.843750 956005.812500 137 167 92
638249.125000 155737.375000 956389.812500 151 183 106
639885.875000 155888.171875 957315.812500 170 204 119
641565.000000 156048.765625 958302.062500 177 212 120
643673.875000 156313.218750 959926.062500 174 211 115
644515.000000 156269.453125 959657.250000 185 223 126
647123.187500 156653.609375 962016.375000 191 230 134
636905.062500 153936.468750 945330.375000 189 226 133
622484.625000 150213.859375 922469.625000 192 226 139
703660.187500 169535.218750 1041122.937500 212 240 164
941489.375000 226479.578125 1390820.625000 182 204 143
632950.375000 156955.671875 957612.750000 144 171 98
633453.750000 156827.984375 956833.687500 155 184 105
634132.687500 156744.093750 956321.875000 145 174 90
635143.937500 156742.484375 956312.062500 136 168 82
636197.250000 156751.250000 956365.500000 134 167 83
637163.250000 156738.484375 956287.687500 136 167 87
638341.625000 156777.937500 956528.375000 142 173 93
639800.062500 156885.937500 957187.312500 155 187 104
641318.187500 157008.234375 957933.375000 167 202 114
643356.250000 157257.203125 959452.375000 173 210 118
644449.625000 157274.843750 959560.000000 186 223 129
647084.437500 157667.984375 961958.750000 193 229 136
636615.312500 154872.062500 944900.312500 192 229 138
621859.125000 151043.671875 921542.687500 198 229 146
699584.687500 169654.906250 1035092.875000 208 234 161
923223.500000 223537.125000 1363837.250000 173 194 136
633424.000000 158093.031250 958329.312500 137 163 91
633857.812500 157947.000000 957444.062500 158 187 110
634467.750000 157845.234375 956827.187500 151 180 99
635444.375000 157834.875000 956764.437500 137 169 85
636424.500000 157825.421875 956707.062500 137 170 83
637329.062500 157797.296875 956536.562500 141 174 85
638424.312500 157816.375000 956652.312500 138 171 83
639740.000000 157889.828125 957097.500000 141 173 89
641134.187500 157982.375000 957658.562500 155 188 107
643071.812500 158208.328125 959028.250000 171 206 124
644261.187500 158249.765625 959279.437500 185 221 135
646847.625000 158633.703125 961606.750000 190 227 139
636193.187500 155774.343750 944273.812500 195 231 145
621241.875000 151873.531250 920627.937500 205 237 157
696597.312500 170027.343750 1030672.812500 210 236 165
910655.437500 221925.781250 1345271.000000 167 188 132
633950.500000 159245.203125 959125.937500 130 157 84
634310.937500 159079.609375 958128.562500 153 182 106
634855.937500 158960.734375 957412.562500 159 187 109
635802.000000 158942.531250 957302.875000 143 174 91
636712.187500 158915.406250 957139.562500 138 171 83
637557.437500 158872.203125 956879.312500 144 177 86
638568.875000 158870.484375 956869.000000 141 174 83
639739.500000 158908.296875 957096.750000 136 169 84
641006.437500 158969.890625 957467.687500 146 179 101
642831.312500 159169.421875 958669.500000 168 200 125
644083.750000 159226.812500 959015.187500 187 221 142
646615.562500 159599.812500 961261.687500 191 226 144
636031.750000 156739.500000 944034.187500 195 231 148
621205.937500 152844.484375 920574.750000 208 240 164
693477.750000 170357.921875 1026057.187500 213 239 173
894139.250000 219306.546875 1320872.375000 170 191 137
634931.187500 160255.859375 959065.375000 143 171 96
635398.312500 160116.343750 958230.500000 166 194 117
636306.375000 160088.234375 958062.250000 155 185 104
637129.312500 160038.843750 957766.625000 139 172 86
637899.062500 159976.250000 957392.062500 143 176 86
638805.625000 159948.109375 957223.687500 145 178 88
639792.062500 159940.046875 957175.375000 138 170 86
640896.375000 159961.421875 957303.312500 140 173 96
642618.125000 160136.578125 958351.562500 168 199 126
644031.250000 160234.390625 958937.000000 191 224 149
646557.812500 160608.500000 961175.812500 193 228 150
636234.750000 157794.546875 944335.500000 192 227 149
621729.375000 153953.828125 921350.375000 205 235 164
689261.937500 170407.625000 1019819.562500 211 237 174
869760.187500 214694.484375 1284858.250000 166 187 135
635377.375000 161389.875000 959739.312500 128 157 82
635798.312500 161237.609375 958833.812500 168 196 119
636684.187500 161203.531250 958631.187500 166 196 116
637452.687500 161139.890625 958252.750000 144 176 92
638173.875000 161064.531250 957804.562500 141 174 87
639012.562500 161019.000000 957533.875000 147 180 92
639878.250000 160980.421875 957304.375000 140 172 90
640874.875000 160974.828125 957271.187500 138 170 95
642546.062500 161138.437500 958244.125000 167 199 126
644093.562500 161270.562500 959029.812500 196 229 154
646649.687500 161654.421875 961312.437500 196 230 154
636687.500000 158912.562500 945007.500000 190 223 149
622602.062500 155151.875000 922643.687500 204 233 166
686358.562500 170770.593750 1015523.687500 212 237 176
851047.687500 211413.437500 1257215.125000 166 187 134
636371.125000 162404.234375 959697.562500 162 190 114
637228.250000 162362.390625 959450.375000 173 202 124
637939.687500 162283.609375 958984.875000 153 185 105
638617.312500 162196.500000 958470.062500 143 175 94
639393.562500 162134.671875 958104.687500 147 179 97
640134.437500 162064.093750 957687.625000 142 174 93
641015.062500 162029.062500 957480.562500 136 168 91
642630.375000 162179.546875 958369.875000 165 197 121
644330.000000 162350.796875 959381.875000 195 227 151
646909.125000 162742.765625 961698.187500 196 230 154
638023.375000 160253.828125 946990.250000 190 222 150
625244.625000 156796.484375 926559.687500 208 237 170
681693.187500 170683.250000 1008620.937500 218 244 183
816573.812500 204133.390625 1206288.375000 162 183 130
636754.750000 163524.125000 960276.187500 151 179 104
637591.312500 163476.578125 959997.000000 169 198 123
638272.625000 163389.453125 959485.312500 161 192 117
638935.062500 163297.765625 958946.937500 151 182 107
639686.687500 163229.156250 958544.000000 152 182 106
640366.125000 163142.359375 958034.250000 143 175 96
641185.625000 163091.453125 957735.312500 134 167 86
642761.250000 163232.734375 958565.062500 157 191 109
644534.000000 163423.546875 959685.562500 188 221 141
647101.250000 163814.906250 961983.750000 194 228 151
639310.562500 161587.031250 948900.812500 190 223 148
627897.625000 158452.078125 930491.187500 212 243 173
677876.125000 170794.968750 1002973.312500 220 246 183
787631.937500 198136.593750 1163533.750000 150 172 116
637175.750000 164654.890625 960911.062500 142 169 97
637997.750000 164603.125000 960608.937500 162 190 119
638666.437500 164512.031250 960077.250000 165 196 123
639330.875000 164420.140625 959541.062500 160 191 117
640082.062500 164350.812500 959136.375000 158 188 113
640734.437500 164256.375000 958585.312500 148 179 100
641520.687500 164196.500000 958235.875000 133 167 84
643084.312500 164335.468750 959046.875000 150 184 99
644922.750000 164544.109375 960264.500000 179 213 130
647495.062500 164939.015625 962569.187500 195 230 150
641195.875000 163076.390625 951699.062500 191 225 147
631645.375000 160394.031250 936045.062500 211 242 171
674099.687500 170904.937500 997385.750000 219 245 181
757174.437500 191665.125000 1118540.250000 129 152 89
1492069.750000 395584.843750 2294347.250000 137 144 109
1085013.500000 287194.093750 1665693.250000 165 175 127
637862.812500 165856.203125 961947.187500 128 155 86
638675.250000 165801.343750 961629.000000 164 192 125
639329.500000 165705.671875 961074.062500 179 209 138
639988.875000 165611.609375 960528.562500 160 191 114
640728.500000 165538.593750 960105.062500 150 180 99
641331.437500 165430.546875 959478.437500 148 180 97
642062.375000 165355.812500 959044.937500 137 171 87
643632.500000 165497.093750 959864.375000 144 178 94
645608.750000 165742.187500 961285.875000 167 201 118
648245.312500 166155.750000 963684.500000 189 223 142
644047.750000 164819.078125 955931.937500 194 227 148
637115.812500 162787.968750 944151.750000 214 244 169
669370.562500 170760.000000 990388.625000 209 236 166
1534930.125000 409460.093750 2360253.250000 136 143 102
1120216.625000 298342.312500 1719736.375000 222 234 172
835919.375000 222263.546875 1281195.000000 184 198 134
639224.625000 166968.281250 962456.250000 155 183 117
639878.500000 166871.671875 961899.375000 177 207 136
640537.437500 166776.687500 961351.875000 159 191 111
641273.250000 166702.015625 960921.375000 149 181 95
641849.875000 166586.234375 960254.062500 151 184 98
642549.375000 166502.671875 959772.375000 142 176 91
644147.687500 166651.921875 960632.687500 144 178 94
646240.812500 166928.500000 962227.000000 164 198 113
648959.312500 167365.500000 964745.937500 191 224 142
646421.625000 166447.687500 959455.375000 203 235 154
641563.562500 164936.250000 950743.000000 213 243 165
666330.875000 171033.796875 985891.125000 207 236 161
696316.687500 178449.562500 1028637.875000 139 164 96
1412582.500000 360312.156250 2076949.625000 149 164 108
2154267.750000 548637.812500 3162516.250000 145 156 110
1213849.375000 325262.312500 1863479.625000 176 189 123
879552.187500 235299.812500 1348070.125000 210 227 153
715758.062500 191169.406250 1095240.000000 182 197 126
639814.875000 168147.703125 963344.937500 142 170 99
640459.625000 168047.859375 962772.937500 166 197 120
641138.500000 167957.265625 962253.937500 164 196 113
641905.375000 167890.000000 961868.562500 160 193 104
642492.125000 167775.906250 961214.875000 159 192 105
643185.750000 167690.046875 960722.937500 148 181 97
644832.312500 167852.500000 961653.687500 143 176 94
647041.562500 168160.687500 963419.312500 159 193 109
649837.937500 168620.234375 966052.187500 189 223 138
649249.812500 168201.500000 963653.125000 205 239 155
646869.312500 167320.468750 958605.625000 207 238 158
663262.312500 171290.578125 981350.937500 198 227 150
673948.937500 173776.796875 995595.000000 164 190 115
725114.687500 186676.328125 1069498.375000 142 164 93
894891.937500 230023.375000 1317840.500000 156 175 110
1191691.000000 305833.406250 1752168.250000 161 177 118
1735001.250000 444571.875000 2547023.000000 162 175 119
2129953.750000 544922.000000 3121945.000000 152 162 113
926732.187500 249433.187500 1420381.875000 184 202 117
727640.625000 195528.046875 1113422.375000 203 221 143
623140.250000 167174.984375 951967.687500 179 196 122
640046.750000 169234.250000 963694.000000 131 160 82
640679.812500 169130.625000 963103.937500 165 198 113
641386.875000 169046.843750 962626.812500 171 204 116
642201.687500 168991.656250 962312.625000 165 198 108
642828.062500 168887.140625 961717.437500 165 198 109
643544.125000 168806.500000 961258.250000 156 189 106
645235.937500 168981.640625 962255.562500 141 174 95
647507.312500 169307.796875 964112.750000 142 175 94
650341.187500 169779.734375 966800.250000 171 205 122
650960.937500 169673.078125 966192.875000 202 236 152
650137.875000 169191.281250 963449.375000 205 237 154
661632.375000 171911.484375 978939.375000 180 210 128
663667.250000 172169.093750 980406.312500 147 174 95
699225.437500 181108.890625 1031313.437500 134 158 82
825202.500000 213403.687500 1215214.125000 142 163 89
1843827.000000 474596.343750 2702559.500000 159 171 112
992753.125000 268822.312500 1521570.750000 179 196 116
746499.375000 201811.375000 1142279.750000 204 222 137
624849.375000 168649.421875 954578.625000 188 206 120
611528.687500 164786.187500 932712.250000 195 216 135
640884.062500 170209.875000 963411.000000 160 193 104
641630.125000 170135.812500 962991.875000 172 205 115
642510.250000 170097.500000 962774.937500 166 199 110
643201.687500 170009.437500 962276.500000 167 200 113
643962.250000 169939.875000 961882.750000 163 196 113
645695.875000 170126.921875 962941.500000 142 175 95
647981.187500 170458.515625 964818.312500 131 164 85
650820.187500 170934.468750 967512.312500 165 198 118
652241.000000 171037.031250 968092.875000 205 238 156
652471.562500 170827.640625 966907.687500 206 238 155
661142.187500 172825.187500 978214.062500 171 201 120
660719.875000 172443.265625 976052.250000 139 166 87
686306.000000 178839.890625 1012258.062500 136 160 82
773185.125000 201163.375000 1138612.000000 142 165 84
1532919.000000 396960.656250 2246851.250000 145 158 91
2007326.500000 519002.343750 2937623.750000 151 162 100
771822.125000 209914.156250 1181028.250000 186 204 117
626680.687500 170162.593750 957376.312500 211 231 136
610629.437500 165535.062500 931340.687500 206 230 134
636122.375000 172166.453125 968650.500000 206 228 139
636772.187500 172063.484375 968071.125000 140 159 96
641363.000000 171363.156250 964130.937500 142 174 83
642158.812500 171301.718750 963785.250000 163 197 107
643116.687500 171283.656250 963683.625000 167 199 113
643884.562500 171215.125000 963298.062500 169 201 117
644695.437500 171158.218750 962977.937500 165 198 116
646481.312500 171359.953125 964112.875000 144 177 97
648791.000000 171699.640625 966024.125000 131 164 85
651644.750000 172182.031250 968738.125000 160 193 113
654020.687500 172536.828125 970734.375000 201 233 154
655508.625000 172656.640625 971408.437500 199 230 151
660831.937500 173784.671875 977755.000000 155 184 106
657558.437500 172651.953125 971382.062500 134 160 82
671952.562500 176154.406250 991087.625000 149 173 93
721300.000000 188794.625000 1062204.625000 151 173 90
787099.250000 205694.687500 1157288.500000 133 155 70
1645737.500000 428075.281250 2408456.000000 146 158 91
2198704.750000 571019.062500 3212692.750000 140 151 96
