ply
		format ascii 1.0
		element vertex 9186
		property float x
		property float y
		property float z
		property uchar red
		property uchar green
		property uchar blue
		end_header
497723.187500 188271.031250 769122.125000 179 180 170
497728.312500 187963.843750 767867.250000 183 186 174
497269.656250 187482.812500 765902.125000 185 187 175
497086.062500 187106.890625 764366.375000 182 185 171
496874.937500 186721.859375 762793.437500 182 185 169
496341.750000 186217.234375 760732.000000 188 192 180
496247.968750 185878.859375 759349.625000 189 193 184
495801.187500 185409.562500 757432.500000 184 188 178
495699.250000 185070.531250 756047.500000 186 191 181
495686.906250 184766.015625 754803.500000 188 192 182
495471.593750 184386.937500 753254.875000 186 189 179
495668.562500 184162.281250 752337.125000 185 188 179
495506.625000 183805.203125 750878.375000 186 188 180
495510.218750 183510.578125 749674.750000 187 188 180
495546.187500 183228.875000 748523.937500 184 185 177
495441.843750 182896.265625 747165.250000 179 180 172
495707.843750 182701.218750 746368.437500 179 179 171
495719.218750 182413.125000 745191.437500 181 182 173
495893.093750 182185.625000 744262.125000 184 184 175
496134.875000 181983.781250 743437.500000 186 186 176
496273.187500 181744.671875 742460.750000 183 184 171
496695.687500 181610.234375 741911.500000 181 182 168
497049.406250 181451.109375 741261.500000 184 185 169
497569.156250 181353.015625 740860.750000 189 188 172
498175.031250 181286.578125 740589.312500 195 193 179
498730.281250 181201.937500 740243.562500 192 190 177
499407.468750 181161.812500 740079.625000 183 182 169
499962.718750 181077.640625 739735.812500 186 185 172
500537.343750 181000.750000 739421.687500 198 197 185
501073.625000 180910.265625 739052.000000 205 204 191
501529.062500 180790.906250 738564.375000 201 200 188
502079.562500 180706.125000 738218.125000 189 187 176
502471.937500 180564.796875 737640.750000 186 184 174
502938.875000 180450.671875 737174.500000 197 197 188
503377.093750 180326.609375 736667.687500 201 202 193
503695.218750 180159.968750 735986.937500 192 193 185
504151.500000 180043.187500 735509.875000 190 190 182
504483.312500 179882.390625 734852.937500 186 186 176
504953.218750 179771.250000 734398.937500 185 184 172
505436.906250 179665.359375 733966.312500 198 196 182
505790.968750 179513.781250 733347.125000 202 201 188
506274.343750 179408.500000 732917.062500 192 194 182
506684.156250 179277.515625 732381.937500 187 190 177
507159.750000 179170.171875 731943.437500 191 192 179
507787.562500 179116.859375 731725.625000 194 194 183
508566.812500 179117.015625 731726.312500 195 195 186
509518.531250 179177.859375 731974.812500 196 195 189
510571.656250 179274.093750 732368.000000 197 196 191
511563.843750 179348.687500 732672.687500 194 194 188
512583.531250 179432.687500 733015.812500 186 187 181
513660.656250 179536.484375 733439.875000 183 185 178
514640.093750 179605.890625 733723.437500 190 194 187
515715.000000 179708.359375 734142.000000 191 194 187
516742.937500 179794.156250 734492.562500 186 186 180
517725.093750 179863.796875 734777.000000 188 188 182
518669.406250 179920.109375 735007.062500 191 191 186
519482.406250 179930.765625 735050.562500 191 191 187
520413.843750 179982.343750 735261.312500 192 193 190
521341.750000 180032.546875 735466.375000 191 193 189
522368.812500 180116.796875 735810.562500 187 190 186
523571.281250 180261.187500 736400.437500 187 191 185
524730.000000 180390.109375 736927.062500 195 199 191
526018.875000 180563.312500 737634.625000 203 207 197
527152.500000 180682.796875 738122.812500 204 208 196
528256.312500 180791.718750 738567.750000 200 204 192
529451.437500 180931.515625 739138.812500 195 199 187
530490.562500 181017.687500 739490.812500 189 193 181
531644.562500 181142.718750 740001.687500 182 185 174
532703.375000 181235.000000 740378.625000 179 180 171
533751.125000 181323.250000 740739.187500 184 185 176
534888.687500 181441.718750 741223.125000 184 185 176
535908.437500 181519.921875 741542.625000 174 175 166
537017.125000 181627.984375 741984.000000 178 178 170
538047.750000 181709.359375 742316.500000 189 189 180
539036.812500 181776.484375 742590.687500 189 187 177
540058.250000 181854.312500 742908.625000 189 187 174
540969.125000 181894.734375 743073.750000 194 192 180
541858.750000 181927.921875 743209.312500 194 193 190
542683.250000 181939.156250 743255.250000 190 189 191
543444.375000 181929.140625 743214.312500 184 183 183
544187.062500 181913.000000 743148.375000 185 184 184
544913.687500 181891.546875 743060.750000 189 188 188
545609.750000 181859.968750 742931.687500 188 186 184
546323.687500 181834.437500 742827.437500 183 182 177
547045.500000 181811.562500 742734.000000 184 185 177
547753.375000 181784.171875 742622.062500 191 192 183
548494.937500 181768.015625 742556.062500 193 194 183
549297.875000 181772.187500 742573.125000 191 193 179
550153.500000 181793.765625 742661.312500 190 191 176
551052.062500 181829.484375 742807.187500 190 190 178
551963.375000 181869.281250 742969.750000 187 187 179
552842.562500 181898.390625 743088.687500 178 178 170
553727.500000 181929.296875 743215.000000 178 177 167
554567.750000 181945.453125 743281.000000 186 185 174
555384.000000 181953.703125 743314.687500 190 191 179
556196.687500 181960.781250 743343.562500 192 195 183
556984.250000 181959.625000 743338.875000 199 201 189
557826.875000 181976.437500 743407.562500 204 206 194
558689.125000 181999.578125 743502.062500 199 200 189
559584.875000 182033.578125 743640.937500 185 185 174
560512.375000 182077.781250 743821.562500 179 179 169
561408.375000 182111.625000 743959.812500 180 180 170
562356.187500 182162.171875 744166.312500 174 176 164
563267.875000 182200.890625 744324.500000 174 176 162
564176.625000 182238.562500 744478.375000 183 184 172
565107.937500 182283.390625 744661.500000 184 185 173
565983.062500 182310.015625 744770.250000 180 181 167
566925.437500 182358.171875 744967.000000 178 177 163
567845.687500 182399.093750 745134.187500 180 179 166
568781.500000 182444.906250 745321.312500 181 179 167
569694.500000 182483.281250 745478.062500 177 175 163
570528.500000 182496.250000 745531.062500 178 175 163
571790.500000 182645.937500 746142.562500 179 176 162
573212.875000 182846.343750 746961.250000 170 167 152
574823.750000 183106.265625 748023.062500 166 161 148
576618.812500 183424.031250 749321.250000 166 160 150
578129.687500 183650.656250 750247.000000 167 161 151
579625.375000 183871.812500 751150.500000 173 168 157
580709.625000 183962.046875 751519.125000 178 174 163
581607.375000 183993.046875 751645.750000 179 174 164
582648.125000 184069.109375 751956.500000 177 172 161
583586.687500 184112.734375 752134.687500 175 172 159
584533.875000 184158.968750 752323.625000 172 170 157
585422.750000 184186.703125 752436.875000 168 165 153
586251.687500 184195.562500 752473.125000 176 172 162
587062.000000 184198.531250 752485.250000 182 178 166
587828.625000 184187.828125 752441.437500 173 169 155
588565.187500 184167.718750 752359.312500 166 163 151
589331.687500 184157.015625 752315.625000 172 170 162
590051.875000 184131.921875 752213.125000 181 179 173
590685.062500 184079.765625 752000.000000 187 185 176
591322.062500 184028.921875 751792.312500 193 192 181
591875.625000 183952.312500 751479.375000 196 194 181
592479.375000 183891.468750 751230.812500 197 192 180
593092.437500 183833.671875 750994.687500 190 186 174
593664.875000 183763.468750 750707.937500 183 181 168
594325.937500 183720.843750 750533.750000 179 176 165
595001.500000 183682.812500 750378.375000 183 179 169
595717.687500 183657.390625 750274.562500 188 183 175
596545.875000 183666.531250 750311.937500 187 183 177
597393.625000 183681.687500 750373.812500 190 187 180
598265.937500 183704.312500 750466.250000 194 190 178
599737.375000 183910.609375 751309.000000 184 180 166
601330.625000 184153.671875 752301.937500 164 161 147
603339.937500 184523.328125 753812.062500 159 156 143
605843.812500 185043.062500 755935.250000 165 161 150
608022.437500 185462.187500 757647.437500 166 163 151
610759.750000 186050.390625 760050.437500 171 169 157
612944.812500 186469.062500 761760.750000 174 171 159
615080.312500 186871.546875 763405.000000 172 168 156
617702.312500 187420.609375 765648.000000 167 162 149
619733.937500 187789.296875 767154.187500 158 152 137
622085.625000 188253.890625 769052.125000 159 151 135
623949.937500 188569.953125 770343.312500 168 161 144
625545.437500 188804.078125 771299.687500 168 161 146
627253.812500 189071.593750 772392.562500 153 145 131
629870.562500 189364.031250 773587.187500 151 144 130
631147.687500 189500.296875 774143.875000 172 166 152
632346.750000 189612.781250 774603.437500 177 172 157
633580.375000 189735.328125 775104.062500 157 151 137
636996.687500 190016.203125 776251.500000 152 146 132
638372.312500 190179.890625 776920.187500 160 154 141
640240.625000 190489.765625 778186.062500 144 138 125
654681.750000 192544.796875 786581.250000 167 161 145
655907.687500 192659.000000 787047.750000 145 139 122
680823.687500 194271.390625 793634.750000 147 140 106
680794.312500 194022.296875 792617.125000 148 141 109
680210.000000 193615.875000 790956.812500 155 149 118
679883.062500 193283.625000 789599.500000 170 165 135
679052.625000 192809.218750 787661.437500 185 179 150
678573.875000 192435.734375 786135.687500 190 183 155
678292.937500 192119.187500 784842.562500 171 164 136
660308.312500 184078.375000 751994.375000 151 135 101
428435.468750 239028.265625 972247.812500 140 137 127
439560.781250 233935.515625 951533.000000 141 136 125
487999.968750 235811.031250 959161.687500 143 145 129
488214.406250 235422.187500 957580.062500 146 144 127
488037.687500 234846.750000 955239.437500 146 139 121
488133.531250 234404.593750 953441.000000 145 138 120
489666.531250 231768.203125 942717.500000 143 134 129
490252.437500 231571.062500 941915.625000 149 141 135
490712.437500 231315.359375 940875.562500 150 146 135
491338.812500 231138.968750 940158.062500 147 146 133
492042.875000 230999.765625 939591.812500 151 149 137
492709.375000 230843.531250 938956.375000 162 160 148
493556.875000 230772.562500 938667.687500 158 156 144
494122.812500 230570.468750 937845.750000 152 150 138
494674.406250 230362.531250 936999.937500 155 153 141
495108.812500 230100.968750 935936.000000 160 158 146
495371.281250 229760.718750 934552.062500 162 160 148
495832.500000 229513.812500 933547.750000 160 161 148
496024.218750 229143.406250 932041.125000 162 163 150
496408.906250 228863.437500 930902.375000 166 165 155
496789.781250 228582.843750 929761.062500 171 169 160
496984.187500 228217.734375 928275.937500 173 171 162
497447.781250 227977.437500 927298.500000 175 173 164
497652.812500 227619.812500 925843.937500 177 177 165
498043.468750 227348.359375 924739.750000 174 175 162
498449.500000 227084.968750 923668.437500 172 172 160
498687.750000 226746.328125 922291.062500 175 174 162
499190.968750 226529.265625 921408.125000 176 174 162
499473.093750 226212.906250 920121.312500 171 169 156
499934.781250 225978.968750 919169.750000 165 164 151
500411.062500 225752.515625 918248.687500 166 166 154
500722.500000 225452.734375 917029.312500 169 169 157
501260.968750 225256.125000 916229.625000 164 165 152
501591.406250 224967.000000 915053.562500 161 161 149
502093.843750 224755.968750 914195.250000 164 163 151
502590.281250 224543.078125 913329.312500 162 160 148
502908.687500 224251.625000 912143.812500 161 159 147
503430.656250 224051.890625 911331.375000 163 161 148
503705.781250 223743.281250 910076.125000 161 159 146
504146.281250 223509.156250 909123.812500 164 161 148
504558.718750 223263.531250 908124.750000 167 165 152
504780.343750 222934.578125 906786.687500 166 163 151
505233.875000 222709.093750 905869.562500 165 162 149
505362.906250 222341.687500 904375.125000 162 159 146
505668.031250 222053.031250 903201.000000 167 163 151
505911.812500 221738.562500 901921.937500 177 173 161
505913.281250 221319.296875 900216.562500 180 178 165
506204.625000 221028.187500 899032.500000 177 175 163
506073.093750 220553.875000 897103.187500 172 169 160
506236.250000 220209.531250 895702.562500 169 168 157
506216.000000 219786.859375 893983.375000 169 170 160
505641.281250 219125.468750 891293.187500 169 169 159
505370.281250 218597.953125 889147.500000 168 166 152
504541.718750 217831.671875 886030.687500 169 167 152
504186.843750 217272.390625 883755.750000 167 165 151
503833.250000 216715.750000 881491.625000 161 158 146
503075.843750 215987.796875 878530.625000 160 157 144
502892.875000 215508.703125 876581.937500 163 160 148
502109.468750 214774.546875 873595.812500 171 167 156
501725.000000 214213.453125 871313.500000 176 172 161
501314.437500 213643.281250 868994.375000 175 171 160
500486.625000 212897.750000 865961.875000 174 169 158
500241.875000 212402.515625 863947.500000 173 170 159
499338.531250 211629.968750 860805.187500 176 175 165
498826.562500 211025.828125 858347.875000 182 182 173
498291.750000 210414.250000 855860.250000 178 178 168
497320.031250 209620.734375 852632.625000 169 170 160
496979.250000 209095.578125 850496.562500 172 172 162
496142.875000 208364.187500 847521.625000 182 182 172
495800.218750 207842.421875 845399.375000 185 185 175
495545.218750 207359.234375 843434.000000 180 180 170
494936.250000 206729.937500 840874.312500 179 179 169
494879.062500 206332.968750 839259.687500 180 180 170
494292.375000 205717.078125 836754.500000 183 183 173
493951.187500 205205.375000 834673.187500 191 192 181
493721.187500 204741.625000 832786.875000 192 193 182
493393.343750 204239.031250 830742.500000 185 185 174
493656.125000 203982.281250 829698.250000 179 179 168
493618.906250 203602.718750 828154.312500 177 177 168
493862.656250 203340.187500 827086.500000 179 180 171
494049.187500 203055.078125 825926.812500 181 182 173
493825.031250 202602.484375 824085.875000 181 180 172
493846.843750 202252.218750 822661.187500 180 179 171
493449.406250 201731.812500 820544.437500 184 183 176
493369.437500 201342.796875 818962.062500 189 188 182
493283.750000 200952.812500 817375.875000 187 186 179
492905.031250 200445.062500 815310.562500 186 185 176
492949.531250 200110.890625 813951.312500 183 183 173
492583.375000 199611.468750 811919.937500 172 171 161
492542.062500 199245.218750 810430.187500 166 165 154
492467.250000 198866.703125 808890.562500 176 176 164
491958.218750 198314.484375 806644.437500 191 189 178
491814.875000 197911.328125 805004.625000 190 190 178
491541.187500 197457.234375 803157.562500 182 184 172
491810.281250 197222.359375 802202.250000 182 184 172
492209.750000 197040.500000 801462.562500 184 185 174
492301.875000 196736.453125 800225.812500 186 186 177
492624.781250 196525.515625 799367.812500 187 187 179
492534.406250 196150.718750 797843.375000 185 185 176
492603.875000 195840.765625 796582.562500 184 184 175
492559.031250 195486.500000 795141.625000 186 186 177
492201.343750 195009.515625 793201.437500 187 189 178
492184.281250 194668.875000 791815.937500 185 187 176
491704.500000 194146.703125 789692.000000 182 183 172
491535.500000 193748.812500 788073.562500 181 181 172
491335.125000 193339.937500 786410.437500 184 185 176
490808.531250 192804.296875 784231.750000 191 191 183
490730.000000 192446.187500 782775.125000 194 194 187
490134.093750 191886.734375 780499.562500 191 193 184
489818.312500 191438.671875 778677.062500 190 192 183
489523.468750 191000.281250 776893.937500 194 196 186
489002.218750 190475.187500 774758.062500 195 197 188
489013.875000 190159.078125 773472.312500 192 194 184
488509.375000 189643.671875 771375.875000 186 188 178
488255.156250 189226.984375 769681.000000 183 185 175
487962.750000 188796.906250 767931.687500 185 186 177
487342.687500 188241.734375 765673.500000 187 188 179
487201.562500 187873.078125 764174.000000 190 191 181
486613.187500 187333.468750 761979.187500 198 198 188
486370.906250 186928.687500 760332.687500 201 202 192
486171.500000 186541.703125 758758.625000 197 199 189
485690.375000 186048.062500 756750.750000 192 194 184
485680.906250 185736.453125 755483.250000 189 190 181
485269.218750 185272.281250 753595.312500 188 191 181
485138.156250 184916.640625 752148.687500 190 194 184
485046.250000 184577.062500 750767.437500 194 197 189
484718.500000 184148.984375 749026.250000 193 197 188
484811.125000 183881.765625 747939.375000 188 191 183
484564.562500 183486.984375 746333.562500 186 189 182
484562.593750 183185.968750 745109.187500 190 194 185
484601.468750 182901.328125 743951.437500 193 199 189
484424.437500 182536.281250 742466.562500 195 199 191
484600.781250 182305.359375 741527.312500 195 197 191
484580.031250 182001.156250 740290.000000 194 197 190
484806.218750 181790.562500 739433.375000 193 197 190
485124.281250 181615.015625 738719.375000 193 198 192
485328.687500 181397.562500 737834.812500 193 198 191
485789.281250 181276.406250 737342.062500 190 196 189
486022.593750 181071.000000 736506.500000 192 196 190
486338.562500 180896.968750 735798.687500 199 201 195
486644.562500 180719.796875 735078.000000 205 206 201
486854.531250 180507.593750 734214.875000 204 205 199
487284.843750 180377.625000 733686.250000 203 205 198
487427.562500 180141.796875 732727.000000 210 211 206
487639.250000 179932.156250 731874.312500 212 213 208
487821.843750 179712.484375 730980.812500 210 212 206
487876.250000 179446.343750 729898.312500 212 214 206
488192.343750 179277.171875 729210.125000 208 210 201
488331.937500 179043.812500 728260.937500 203 205 196
488660.406250 178880.328125 727596.000000 205 207 198
489019.750000 178728.656250 726979.062500 204 207 198
489224.968750 178521.218750 726135.312500 202 205 195
489623.093750 178384.703125 725580.062500 201 204 194
489851.031250 178186.734375 724774.750000 204 206 198
490209.718750 178036.859375 724165.187500 208 210 204
490599.031250 177898.546875 723602.625000 208 212 205
490890.437500 177725.234375 722897.687500 207 212 203
491367.562500 177619.609375 722468.062500 206 209 201
491745.187500 177478.390625 721893.625000 201 203 196
492235.718750 177378.296875 721486.500000 196 197 190
492771.781250 177294.906250 721147.312500 196 197 190
493243.000000 177188.484375 720714.437500 199 201 193
493837.687500 177126.671875 720462.937500 199 200 192
494395.750000 177051.921875 720158.937500 197 198 191
495037.000000 177007.156250 719976.875000 198 199 192
495705.062500 176972.125000 719834.375000 201 202 194
496313.843750 176916.046875 719606.250000 200 201 194
496971.531250 176877.546875 719449.687500 196 198 193
497613.718750 176833.656250 719271.125000 197 199 194
498294.062500 176803.453125 719148.312500 201 203 197
499020.031250 176789.484375 719091.500000 203 204 199
499766.156250 176782.718750 719063.937500 201 205 199
500555.406250 176791.171875 719098.375000 200 205 199
501393.562500 176816.859375 719202.875000 201 205 199
502235.437500 176843.781250 719312.375000 200 204 198
503102.343750 176879.437500 719457.312500 198 202 196
503989.375000 176922.031250 719630.625000 198 202 196
504840.156250 176951.781250 719751.625000 203 208 202
505740.343750 176998.750000 719942.687500 207 212 205
506602.500000 177032.281250 720079.000000 208 213 204
507483.312500 177072.203125 720241.437500 215 219 210
508429.968750 177134.968750 720496.750000 220 224 216
509340.750000 177185.046875 720700.437500 217 221 215
510305.687500 177253.796875 720980.062500 217 220 215
511216.718750 177303.656250 721182.875000 218 221 217
512111.062500 177347.562500 721361.500000 216 221 217
513035.531250 177401.781250 721582.000000 214 220 215
513895.687500 177433.609375 721711.437500 216 221 216
514762.312500 177467.578125 721849.625000 219 224 219
515584.500000 177486.156250 721925.187500 215 220 214
516377.281250 177494.562500 721959.375000 206 213 203
517175.250000 177504.734375 722000.750000 199 208 197
517949.281250 177506.656250 722008.562500 193 202 193
518724.562500 177509.015625 722018.125000 196 203 195
519497.406250 177510.515625 722024.250000 206 212 205
520267.875000 177511.218750 722027.125000 210 215 210
521044.218750 177513.921875 722038.125000 205 210 206
521820.218750 177516.484375 722048.562500 202 207 203
522578.250000 177512.953125 722034.187500 205 208 204
523332.875000 177508.265625 722015.125000 209 210 207
524063.468750 177495.453125 721963.062500 202 203 199
524765.812500 177473.125000 721872.187500 203 204 200
525471.750000 177452.078125 721786.562500 211 212 208
526120.062500 177411.671875 721622.250000 207 209 202
526784.500000 177376.796875 721480.375000 200 203 195
527427.187500 177334.718750 721309.187500 203 207 201
528024.000000 177277.359375 721075.937500 211 215 211
528665.687500 177235.203125 720904.437500 212 215 213
529252.812500 177174.921875 720659.250000 207 211 209
529887.000000 177130.531250 720478.687500 202 206 205
530528.125000 177088.593750 720308.125000 200 204 202
531122.937500 177031.343750 720075.250000 201 206 203
531773.937500 176992.937500 719919.000000 200 205 202
532432.375000 176957.125000 719773.375000 200 204 200
533159.937500 176944.375000 719721.500000 206 210 204
533918.562500 176941.937500 719711.562500 205 208 204
534652.187500 176931.234375 719668.062500 198 198 199
535398.687500 176924.812500 719641.937500 198 199 199
536129.750000 176913.328125 719595.187500 201 204 199
536864.812500 176903.171875 719553.875000 200 203 197
537598.437500 176892.609375 719510.937500 196 201 194
538320.875000 176878.359375 719453.000000 190 196 189
539056.625000 176868.546875 719413.062500 188 193 187
539794.812500 176859.546875 719376.437500 192 197 190
540558.375000 176858.875000 719373.750000 196 200 194
541318.750000 176857.171875 719366.750000 194 197 191
542047.312500 176845.093750 719317.687500 191 192 186
542770.937500 176831.437500 719262.125000 188 190 182
543477.312500 176812.218750 719183.937500 183 188 182
544201.687500 176798.875000 719129.687500 178 184 179
544924.312500 176785.015625 719073.312500 179 185 179
545626.062500 176764.437500 718989.562500 187 192 188
546344.375000 176749.265625 718927.875000 190 194 191
547057.312500 176732.406250 718859.312500 182 187 183
547794.187500 176723.312500 718822.375000 180 185 181
548540.375000 176717.250000 718797.687500 184 188 185
549166.437500 176672.562500 718615.875000 181 185 183
549767.562500 176619.984375 718402.062500 183 186 184
550935.375000 176749.343750 718928.187500 185 188 186
552433.875000 176984.296875 719883.875000 171 175 174
554243.250000 177318.062500 721241.500000 162 165 163
556266.312500 177719.171875 722873.000000 174 173 170
557952.750000 178011.765625 724063.062500 182 181 176
559625.125000 178299.078125 725231.750000 178 177 173
560777.312500 178420.093750 725724.000000 178 178 174
561683.187500 178462.500000 725896.500000 182 181 177
562749.562500 178555.734375 726275.750000 183 182 177
563673.250000 178603.515625 726470.062500 183 183 177
564598.625000 178651.671875 726665.937500 179 180 174
565449.062500 178676.031250 726765.000000 170 170 164
566241.750000 178682.093750 726789.687500 165 165 159
567043.312500 178690.937500 726825.687500 168 168 162
567812.312500 178689.515625 726819.875000 169 169 161
568554.062500 178679.531250 726779.187500 171 171 166
569300.000000 178670.875000 726744.062500 177 178 179
570010.875000 178651.265625 726664.312500 187 188 191
570676.375000 178617.500000 726526.937500 194 194 195
571350.187500 178586.437500 726400.562500 200 200 199
571947.875000 178531.687500 726177.875000 204 205 203
572565.750000 178483.390625 725981.437500 205 205 202
573177.375000 178433.265625 725777.562500 201 201 197
573754.937500 178372.671875 725531.125000 193 194 189
574403.437500 178334.296875 725375.000000 183 185 178
575048.625000 178294.968750 725215.062500 182 182 176
575726.187500 178265.781250 725096.312500 189 189 184
576491.812500 178263.921875 725088.750000 201 201 197
577266.750000 178264.906250 725092.812500 205 206 200
578073.812500 178275.828125 725137.187500 199 200 190
579375.375000 178439.000000 725800.937500 186 186 176
580750.000000 178624.234375 726554.312500 176 177 168
582540.312500 178936.625000 727825.000000 179 180 172
584856.625000 179409.578125 729748.687500 188 189 180
586948.500000 179812.484375 731387.562500 194 194 185
589678.500000 180409.578125 733816.187500 198 198 189
591931.875000 180859.453125 735646.062500 201 201 192
594181.125000 181306.890625 737466.062500 195 194 185
596905.625000 181897.968750 739870.250000 186 184 175
598987.062500 182291.781250 741472.062500 182 178 168
601365.937500 182774.953125 743437.375000 179 174 163
603219.437500 183097.406250 744748.937500 181 176 164
604747.625000 183320.375000 745655.875000 193 189 177
606356.062500 183567.078125 746659.312500 203 198 187
607465.062500 183662.109375 747045.875000 200 195 184
608661.812500 183783.421875 747539.312500 193 188 176
609724.562500 183863.984375 747867.000000 187 183 172
610717.312500 183923.250000 748108.125000 178 174 163
611756.125000 183996.234375 748404.937500 165 161 150
612667.125000 184030.609375 748544.750000 159 155 143
613911.937500 184165.062500 749091.625000 163 159 147
615140.687500 184294.343750 749617.500000 175 170 160
616642.125000 184504.875000 750473.875000 184 180 170
618576.062500 184844.109375 751853.687500 187 184 174
620361.812500 185138.250000 753050.062500 191 187 177
622591.062500 185563.812500 754781.062500 189 185 175
624448.500000 185877.593750 756057.375000 182 177 168
626285.187500 186184.406250 757305.312500 180 174 167
628425.687500 186580.625000 758917.000000 178 173 165
630095.625000 186836.312500 759956.937500 170 164 155
632135.125000 187200.765625 761439.375000 159 154 143
633884.687500 187478.531250 762569.187500 160 155 144
635519.625000 187721.765625 763558.500000 176 170 159
637248.937500 187992.187500 764658.500000 186 180 169
638522.062500 188127.515625 765208.937500 174 169 157
640292.562500 188408.843750 766353.250000 153 147 135
641967.750000 188661.468750 767380.812500 144 138 126
643823.625000 188966.468750 768621.375000 149 142 130
646055.625000 189380.968750 770307.375000 160 153 141
647912.812500 189684.671875 771542.687500 163 155 143
650435.687500 190182.250000 773566.562500 153 146 131
652657.187500 190590.546875 775227.375000 149 140 124
654934.562500 191014.140625 776950.250000 165 156 140
657605.000000 191551.140625 779134.562500 195 188 171
659644.187500 191903.156250 780566.312500 215 210 193
662165.500000 192394.359375 782564.312500 206 202 184
664278.500000 192765.828125 784075.312500 170 167 149
675592.187500 193616.734375 787536.375000 172 169 135
676070.500000 193513.750000 787117.437500 191 187 156
676389.750000 193365.546875 786514.625000 180 175 146
676820.375000 193249.500000 786042.625000 161 156 127
676932.562500 193042.921875 785202.312500 144 138 112
657373.125000 184504.125000 750470.750000 157 141 115
653134.312500 183091.968750 744726.875000 188 171 142
649470.000000 181844.093750 739651.062500 180 163 130
648895.812500 181463.390625 738102.562500 159 143 106
404957.500000 227457.046875 921194.125000 144 140 129
405291.937500 227095.109375 919728.250000 147 143 132
405444.906250 226633.453125 917858.625000 145 141 129
408126.781250 224881.703125 910764.062500 139 136 125
421797.281250 225974.093750 915188.250000 137 138 124
422806.875000 225993.125000 915265.250000 146 146 132
424263.375000 226250.375000 916307.125000 142 141 128
435555.593750 229633.156250 930007.312500 139 137 129
437913.000000 230352.562500 932920.875000 142 139 131
440141.687500 231001.171875 935547.687500 148 144 136
442772.375000 231857.343750 939015.187500 152 148 140
444810.187500 232399.906250 941212.500000 152 149 140
446836.781250 232934.171875 943376.312500 147 145 135
448258.593750 233151.500000 944256.500000 149 144 136
449414.906250 233230.046875 944574.625000 156 150 143
450820.250000 233437.218750 945413.625000 152 148 138
452080.281250 233568.375000 945944.812500 144 140 130
472967.437500 235446.453125 953551.000000 143 137 125
473451.625000 235182.859375 952483.437500 144 137 127
474514.968750 231741.687500 938546.750000 140 141 123
474595.062500 231293.906250 936733.312500 139 140 122
475131.375000 227728.375000 922293.000000 142 135 127
475343.375000 226892.531250 918907.875000 145 136 133
475636.562500 226566.343750 917586.750000 148 139 137
475742.406250 226152.437500 915910.500000 148 139 138
476180.531250 225897.859375 914879.500000 150 139 140
476484.906250 225581.000000 913596.187500 144 139 132
477023.468750 225376.062500 912766.187500 143 142 128
477657.750000 225217.093750 912122.437500 153 151 139
478214.750000 225022.421875 911333.937500 161 157 146
478972.718750 224922.890625 910930.875000 152 148 137
479442.156250 224688.562500 909981.812500 148 144 133
479925.781250 224461.812500 909063.500000 155 152 140
480308.031250 224188.656250 907957.187500 155 153 141
480515.750000 223835.281250 906526.062500 154 154 142
480940.093750 223584.031250 905508.500000 161 161 149
481084.093750 223203.718750 903968.312500 166 166 154
481419.218750 222913.437500 902792.625000 164 164 153
481749.875000 222622.234375 901613.250000 170 171 160
481888.937500 222243.843750 900080.750000 172 173 162
482305.625000 221994.703125 899071.812500 161 162 151
482473.406250 221632.250000 897603.875000 157 157 146
482840.343750 221362.515625 896511.437500 161 161 149
483230.906250 221104.656250 895467.125000 162 162 150
483454.468750 220771.546875 894118.062500 157 157 145
483939.562500 220558.937500 893257.000000 153 153 141
484197.968750 220244.062500 891981.750000 153 154 141
484630.281250 220009.359375 891031.187500 152 153 139
485066.156250 219777.187500 890090.937500 152 153 139
485326.906250 219466.734375 888833.625000 165 166 153
485813.250000 219259.312500 887993.562500 163 165 150
486077.625000 218952.687500 886751.750000 151 152 138
486521.812500 218728.109375 885842.187500 158 158 146
486956.375000 218500.078125 884918.687500 161 162 149
487202.843750 218188.687500 883657.562500 155 156 141
487665.250000 217975.015625 882792.187500 153 154 140
487862.687500 217643.968750 881451.437500 157 157 144
488241.812500 217395.078125 880443.437500 154 156 140
488579.781250 217128.843750 879365.250000 154 154 139
488699.187500 216766.687500 877898.500000 164 159 148
489062.625000 216513.968750 876875.000000 169 165 154
489035.125000 216089.453125 875155.687500 168 164 153
489193.906250 215748.703125 873775.687500 167 163 151
489267.750000 215371.859375 872249.500000 168 165 153
489068.718750 214876.562500 870243.500000 160 158 147
489214.562500 214534.375000 868857.687500 162 158 149
488823.375000 213958.406250 866525.000000 169 166 157
488720.843750 213510.718750 864711.937500 163 162 152
488448.031250 212990.468750 862604.937500 161 160 152
487645.500000 212241.609375 859572.062500 165 164 156
487266.625000 211679.593750 857295.937500 166 164 154
486313.000000 210870.484375 854019.062500 164 163 151
485859.312500 210280.750000 851630.625000 164 163 153
485435.156250 209705.984375 849302.812500 165 163 155
484616.968750 208963.437500 846295.562500 165 162 154
484406.375000 208485.140625 844358.500000 170 168 159
483555.718750 207733.671875 841315.062500 172 169 161
483076.625000 207144.281250 838928.062500 168 165 156
482566.156250 206543.656250 836495.500000 168 164 155
481614.562500 205756.781250 833308.687500 173 169 160
481266.343750 205230.093750 831175.625000 173 169 160
480453.625000 204507.640625 828249.687500 167 164 155
480148.312500 204003.390625 826207.500000 167 164 155
479927.687500 203536.921875 824318.312500 172 170 161
479312.625000 202905.171875 821759.750000 172 173 162
479209.437500 202492.015625 820086.500000 168 168 158
478720.937500 201917.843750 817761.125000 165 165 155
478616.843750 201507.593750 816099.625000 167 167 158
478590.031250 201131.312500 814575.687500 170 170 161
478291.531250 200642.421875 812595.687500 170 171 161
478425.750000 200336.484375 811356.687500 171 171 162
478167.343750 199867.546875 809457.500000 172 172 162
478101.656250 199480.718750 807890.812500 171 173 159
478129.500000 199134.203125 806487.437500 174 177 161
478089.937500 198760.921875 804975.687500 177 179 164
478496.750000 198574.234375 804219.562500 174 177 162
478666.343750 198289.906250 803068.125000 171 174 159
479041.343750 198091.562500 802264.812500 173 175 162
479350.625000 197866.796875 801354.500000 176 179 166
479327.187500 197505.718750 799892.125000 177 180 166
479486.750000 197221.203125 798739.875000 177 180 166
479272.593750 196784.234375 796970.125000 179 182 169
479305.781250 196450.203125 795617.312500 183 186 175
479309.125000 196105.140625 794219.812500 187 189 180
479036.343750 195648.500000 792370.500000 186 187 179
479120.218750 195338.875000 791116.500000 184 186 178
478905.875000 194908.984375 789375.437500 189 190 182
478995.250000 194603.984375 788140.187500 191 192 185
479135.531250 194320.687500 786992.875000 189 190 183
479015.187500 193932.875000 785422.250000 188 189 181
479213.906250 193675.359375 784379.312500 191 192 185
479304.062500 193374.937500 783162.625000 193 194 189
479761.000000 193223.281250 782548.437500 191 193 188
480243.625000 193082.484375 781978.187500 191 193 188
480432.812500 192824.390625 780932.937500 193 195 191
480759.125000 192622.125000 780113.750000 195 197 193
480611.312500 192230.937500 778529.500000 195 197 194
480596.875000 191894.343750 777166.250000 194 197 194
480410.406250 191490.343750 775530.062500 194 199 195
479865.312500 190945.015625 773321.500000 197 202 197
479687.000000 190547.250000 771710.562500 199 204 200
479007.687500 189952.171875 769300.500000 197 201 199
478696.156250 189504.734375 767488.375000 192 195 194
478377.531250 189056.000000 765671.062500 191 194 192
477698.687500 188466.687500 763284.375000 193 196 195
477517.218750 188075.265625 761699.125000 199 202 201
476906.437500 187516.375000 759435.625000 209 213 210
476672.281250 187107.203125 757778.500000 208 212 209
476496.312500 186722.218750 756219.250000 200 204 201
476054.718750 186234.625000 754244.562500 202 206 203
476085.125000 185932.984375 753022.937500 208 212 208
475591.125000 185427.921875 750977.437500 213 216 213
475329.093750 185014.843750 749304.500000 217 221 217
475000.468750 184577.281250 747532.312500 220 223 219
474332.750000 184009.609375 745233.312500 218 223 217
474137.281250 183626.750000 743682.750000 214 219 213
473454.125000 183056.593750 741373.625000 214 219 213
473128.187500 182626.218750 739630.625000 216 221 215
472818.625000 182203.593750 737919.062500 219 225 218
472172.343750 181652.828125 735688.437500 222 228 222
472018.281250 181292.937500 734230.875000 223 229 223
471467.843750 180782.250000 732162.562500 218 223 219
471254.250000 180402.187500 730623.375000 210 216 213
471134.406250 180059.203125 729234.250000 208 215 212
470801.718750 179636.140625 727520.875000 215 221 218
470918.875000 179385.828125 726507.187500 225 231 227
470759.375000 179031.125000 725070.625000 229 236 232
470830.250000 178765.046875 723993.000000 223 232 227
470983.656250 178531.125000 723045.625000 216 225 220
470981.468750 178239.078125 721862.875000 219 225 222
471292.937500 178066.500000 721163.875000 224 228 227
471507.906250 177858.078125 720319.812500 224 227 226
471918.625000 177724.046875 719777.000000 223 228 226
472438.406250 177631.468750 719402.000000 223 229 226
472908.531250 177520.531250 718952.750000 222 228 226
473542.093750 177471.218750 718753.062500 220 226 223
474073.843750 177383.968750 718399.625000 220 225 222
474639.968750 177309.828125 718099.437500 225 228 225
475192.250000 177230.765625 717779.250000 230 232 229
475706.343750 177137.750000 717402.500000 236 237 235
476319.000000 177081.671875 717175.437500 236 237 236
476650.312500 176921.343750 716526.062500 231 233 229
476959.812500 176753.453125 715846.062500 230 231 225
477159.718750 176545.531250 715004.062500 232 233 227
477213.968750 176284.468750 713946.750000 232 234 226
477474.843750 176100.453125 713201.500000 231 232 224
477518.906250 175837.171875 712135.250000 231 232 224
477764.750000 175648.921875 711372.812500 233 234 226
478015.125000 175462.921875 710619.500000 237 238 230
478069.031250 175205.515625 709577.000000 235 236 229
478341.500000 175028.890625 708861.687500 229 230 222
478421.468750 174782.484375 707863.750000 224 225 218
478684.312500 174603.578125 707139.187500 227 229 222
478991.812500 174441.484375 706482.750000 233 236 230
479168.718750 174232.421875 705636.000000 234 237 230
479562.375000 174102.687500 705110.625000 228 231 225
479860.156250 173938.625000 704446.125000 222 224 219
480303.968750 173827.906250 703997.750000 218 220 215
480819.937500 173743.625000 703656.375000 218 220 215
481275.062500 173637.640625 703227.125000 220 222 217
481866.531250 173581.093750 702998.125000 221 222 217
482435.718750 173516.718750 702737.437500 219 221 216
483083.968750 173480.937500 702592.500000 217 219 214
483765.250000 173457.109375 702496.062500 216 218 212
484399.250000 173416.437500 702331.250000 213 214 209
485072.031250 173389.734375 702223.125000 210 211 206
485729.812500 173357.765625 702093.687500 210 213 208
486430.625000 173341.234375 702026.687500 212 217 211
487132.531250 173325.140625 701961.500000 213 217 212
487785.468750 173291.687500 701826.062500 212 217 211
488451.562500 173263.031250 701710.000000 210 216 210
489109.250000 173231.453125 701582.125000 209 215 208
489805.812500 173213.750000 701510.375000 210 215 209
490522.531250 173203.187500 701467.625000 213 218 212
491231.437500 173189.921875 701413.937500 214 220 214
491962.656250 173184.546875 701392.125000 213 219 213
492692.250000 173178.625000 701368.125000 212 218 211
493407.750000 173167.765625 701324.187500 215 220 212
494161.656250 173170.390625 701334.812500 220 225 216
494992.031250 173199.781250 701453.812500 227 232 224
495852.531250 173239.593750 701615.125000 235 240 233
496704.468750 173276.296875 701763.750000 239 244 237
497507.656250 173295.921875 701843.250000 238 244 238
498251.750000 173294.937500 701839.250000 237 243 239
498950.500000 173278.203125 701771.437500 240 246 242
499617.000000 173250.328125 701658.562500 241 247 244
500207.531250 173196.250000 701439.500000 236 242 240
500818.000000 173149.203125 701249.000000 227 233 231
501398.687500 173092.031250 701017.437500 217 223 221
501925.937500 173016.593750 700711.937500 208 218 213
502513.312500 172962.093750 700491.250000 205 217 210
503030.781250 172883.718750 700173.812500 207 218 211
503609.218750 172826.500000 699942.062500 210 220 216
504192.375000 172771.062500 699717.562500 212 223 219
504725.218750 172698.593750 699424.062500 215 223 220
505332.562500 172651.765625 699234.437500 215 224 220
505856.906250 172576.781250 698930.687500 214 223 219
506429.343750 172518.390625 698694.250000 211 218 215
506988.718750 172455.718750 698440.437500 208 214 211
507478.656250 172369.656250 698091.875000 210 215 213
508042.531250 172308.921875 697845.875000 216 221 219
508514.781250 172217.328125 697474.937500 218 223 218
509050.687500 172147.531250 697192.312500 216 220 213
509586.218750 172077.812500 696909.937500 216 221 216
510057.031250 171986.468750 696540.000000 223 228 224
510619.468750 171926.250000 696296.062500 226 232 228
511099.125000 171838.375000 695940.187500 223 229 227
511647.531250 171773.828125 695678.750000 227 234 233
512198.593750 171710.359375 695421.750000 232 239 239
512673.125000 171621.453125 695061.687500 225 231 231
513228.375000 171559.781250 694811.937500 216 222 223
513746.750000 171485.984375 694513.062500 212 218 221
514354.437500 171442.187500 694335.625000 209 215 218
514989.593750 171407.640625 694195.687500 206 211 214
515573.343750 171356.093750 693987.000000 205 208 213
516211.468750 171322.765625 693851.937500 208 212 215
516808.750000 171275.968750 693662.500000 206 210 210
517442.843750 171241.500000 693522.875000 196 202 200
518087.937500 171210.765625 693398.437500 192 199 196
518710.312500 171172.625000 693243.937500 194 203 200
519380.468750 171150.343750 693153.687500 193 202 200
520012.937500 171115.718750 693013.437500 187 195 194
520676.468750 171091.390625 692914.937500 185 191 190
521325.968750 171062.531250 692798.062500 190 194 193
521918.812500 171015.203125 692606.375000 193 197 194
522538.625000 170976.812500 692450.937500 190 195 190
523109.656250 170922.609375 692231.312500 190 193 189
523726.687500 170883.562500 692073.187500 189 190 188
524347.812500 170845.937500 691920.875000 185 186 184
524929.187500 170795.515625 691716.625000 186 188 186
525562.750000 170762.171875 691581.625000 189 190 190
526161.562500 170717.656250 691401.312500 185 187 186
526803.687500 170687.296875 691278.312500 184 186 185
527455.500000 170660.140625 691168.375000 191 193 192
527989.000000 170594.859375 690903.937500 194 197 195
528534.312500 170533.562500 690655.687500 186 189 188
529498.625000 170607.421875 690954.875000 176 180 178
530743.000000 170771.218750 691618.250000 174 178 177
532238.937500 171015.375000 692607.062500 174 178 177
533891.875000 171309.218750 693797.125000 171 174 170
535311.625000 171527.562500 694681.437500 173 175 170
536701.875000 171735.843750 695524.937500 178 180 175
537700.687500 171818.468750 695859.562500 175 176 172
538504.875000 171838.781250 695941.812500 173 174 169
539414.187500 171892.515625 696159.437500 175 176 171
540227.562500 171915.593750 696252.875000 169 170 166
541017.375000 171931.109375 696315.750000 160 161 156
541758.812500 171931.218750 696316.187500 158 160 155
542462.062500 171919.234375 696267.687500 164 166 161
543174.375000 171910.156250 696230.875000 167 170 164
543891.625000 171902.640625 696200.500000 165 168 161
544567.875000 171882.234375 696117.812500 160 162 157
545249.875000 171863.671875 696042.625000 159 160 161
545902.625000 171835.968750 695930.500000 162 164 167
546512.562500 171794.890625 695764.062500 169 171 172
547147.000000 171761.609375 695629.312500 176 177 179
547695.812500 171701.562500 695386.062500 181 182 184
548268.312500 171649.093750 695173.625000 181 183 183
548826.312500 171592.234375 694943.375000 173 175 173
549336.875000 171520.718750 694653.687500 160 161 159
549923.000000 171472.968750 694460.312500 157 159 156
550468.062500 171412.546875 694215.625000 161 163 160
551056.937500 171365.906250 694026.750000 170 172 168
551705.687500 171338.000000 693913.687500 179 181 176
552340.250000 171305.765625 693783.125000 184 187 180
553036.000000 171292.562500 693729.687500 180 183 175
554028.875000 171371.312500 694048.625000 171 174 166
555079.125000 171467.578125 694438.500000 166 169 161
556430.500000 171656.453125 695203.437500 166 169 162
558146.375000 171957.156250 696421.250000 171 174 167
559757.562500 172224.843750 697505.375000 178 181 174
561840.687500 172636.828125 699173.875000 184 186 178
563621.812500 172955.062500 700462.750000 183 184 177
565438.875000 173283.453125 701792.687500 175 176 169
567605.125000 173717.843750 703552.000000 166 167 160
569319.125000 174012.875000 704746.812500 166 165 159
571269.312500 174379.218750 706230.562500 174 171 165
572827.312500 174625.046875 707226.125000 180 178 170
574162.000000 174802.234375 707943.687500 185 183 174
575578.250000 175003.750000 708759.875000 184 181 172
576618.250000 175090.515625 709111.250000 175 172 163
577746.812500 175203.890625 709570.437500 168 165 156
578749.000000 175278.703125 709873.437500 170 167 158
579709.437500 175340.703125 710124.500000 171 168 159
580731.375000 175421.109375 710450.187500 168 164 157
581637.250000 175466.281250 710633.125000 166 163 155
582885.375000 175614.468750 711233.250000 170 166 158
584124.562500 175759.578125 711820.937500 177 173 166
585595.937500 175974.078125 712689.687500 180 176 169
587426.437500 176295.796875 713992.625000 181 177 170
589070.687500 176560.859375 715066.125000 186 183 175
591121.937500 176947.093750 716630.375000 194 192 184
592832.437500 177230.453125 717777.937500 195 193 186
594543.625000 177513.281250 718923.375000 193 191 184
596568.687500 177888.984375 720444.937500 196 194 188
598177.125000 178139.640625 721460.125000 200 198 191
600168.250000 178503.468750 722933.625000 197 194 187
601874.437500 178781.750000 724060.625000 191 188 180
603499.437500 179035.203125 725087.125000 193 190 182
605263.750000 179329.312500 726278.250000 206 203 196
606581.437500 179490.500000 726931.062500 213 209 203
608382.750000 179794.203125 728161.062500 199 195 189
610044.125000 180055.828125 729220.625000 182 178 171
611845.625000 180358.109375 730444.812500 179 174 169
613997.750000 180762.843750 732084.000000 186 179 175
615757.875000 181051.265625 733252.125000 194 188 183
618171.375000 181530.843750 735194.437500 203 198 188
620200.250000 181896.421875 736674.937500 203 198 186
622465.937500 182330.437500 738432.687500 201 196 183
625489.812500 182985.140625 741084.250000 209 205 192
628024.562500 183495.312500 743150.437500 223 221 207
631261.750000 184209.156250 746041.500000 228 228 214
633831.812500 184726.781250 748137.812500 225 226 212
636268.625000 185204.328125 750071.875000 220 221 207
639201.875000 185825.000000 752585.562500 206 207 193
641349.125000 186215.890625 754168.687500 173 173 158
643820.750000 186699.875000 756128.812500 144 144 127
652199.312500 187954.921875 761211.687500 148 142 117
653543.750000 188108.718750 761834.562500 190 184 157
654787.812500 188233.265625 762339.000000 215 210 183
656203.687500 188406.843750 763042.000000 199 193 167
657395.187500 188515.640625 763482.625000 161 155 129
638597.250000 179791.765625 728151.187500 206 192 165
634977.375000 178555.937500 723146.125000 220 205 175
634714.312500 178265.906250 721971.500000 193 177 145
635908.625000 178385.390625 722455.375000 161 145 109
636532.500000 178129.640625 721419.625000 151 136 95
392738.562500 224259.328125 904345.500000 145 139 125
391736.312500 223140.203125 899832.562500 146 140 126
388689.406250 220327.390625 888489.625000 143 138 125
387745.906250 219259.171875 884181.937500 153 148 135
386372.500000 217953.593750 878917.062500 146 142 130
385948.281250 217188.500000 875831.750000 142 138 126
385618.656250 216480.171875 872975.375000 154 150 138
386017.437500 216183.187500 871777.750000 155 151 139
386931.562500 216175.546875 871746.937500 140 136 124
388864.031250 216218.312500 871919.437500 141 137 124
390164.156250 216424.765625 872752.000000 153 149 136
391465.343750 216630.828125 873582.937500 163 159 146
392870.531250 216893.312500 874641.437500 159 155 143
394333.875000 217186.593750 875824.062500 148 144 131
395608.000000 217374.531250 876581.937500 146 143 128
397290.406250 217785.375000 878238.750000 150 148 133
398940.187500 218176.468750 879815.812500 152 149 134
400720.406250 218636.875000 881672.500000 146 143 129
402785.500000 219250.234375 884145.875000 143 139 128
404545.500000 219695.015625 885939.500000 149 145 134
406400.656250 220189.296875 887932.750000 151 147 135
407891.125000 220484.156250 889121.812500 147 145 132
409125.000000 220639.250000 889747.250000 149 147 134
410303.531250 220763.875000 890249.812500 155 154 141
411205.468750 220739.437500 890151.250000 158 160 146
412326.593750 220832.515625 890526.562500 159 160 147
413522.062500 220964.875000 891060.312500 154 155 143
414887.437500 221187.218750 891957.000000 147 149 137
416492.000000 221535.765625 893362.562500 149 148 138
418010.593750 221837.125000 894577.750000 150 148 142
419733.781250 222245.406250 896224.187500 153 151 145
421217.781250 222525.500000 897353.750000 157 154 149
422671.125000 222788.171875 898413.000000 155 152 149
424327.281250 223156.312500 899897.562500 151 147 145
425762.531250 223406.890625 900908.000000 153 150 145
427229.250000 223672.796875 901980.250000 159 157 152
428415.750000 223791.140625 902457.500000 166 164 159
429530.718750 223871.687500 902782.312500 166 164 157
430821.812500 224043.437500 903474.937500 157 153 144
432037.125000 224175.125000 904006.000000 154 150 141
433396.625000 224380.875000 904835.625000 152 148 139
