ply
		format ascii 1.0
		element vertex 5490
		property float x
		property float y
		property float z
		property uchar red
		property uchar green
		property uchar blue
		end_header
711013.937500 242951.078125 988203.875000 218 225 218
715560.250000 244143.421875 993053.687500 215 222 215
720133.000000 245341.218750 997925.750000 223 230 223
722895.312500 245919.640625 1000278.500000 232 239 231
726402.500000 246749.359375 1003653.375000 227 234 227
729309.000000 247372.921875 1006189.687500 216 224 219
732005.625000 247923.546875 1008429.437500 217 225 220
735099.312500 248606.859375 1011208.750000 217 226 221
737339.375000 248999.906250 1012807.437500 213 221 216
740715.125000 249774.765625 1015959.187500 213 216 211
743966.750000 250505.562500 1018931.687500 211 210 206
747376.375000 251287.359375 1022111.687500 207 207 204
751328.062500 252248.875000 1026022.625000 204 206 203
754293.062500 252876.796875 1028576.750000 199 203 199
757476.000000 253575.875000 1031420.250000 192 197 193
759672.812500 253943.296875 1032914.687500 190 194 191
761505.562500 254188.109375 1033910.500000 182 186 182
763847.375000 254601.921875 1035593.687500 174 177 173
765759.875000 254871.640625 1036690.750000 175 178 172
767969.625000 255239.375000 1038186.500000 178 180 173
769852.562500 255497.593750 1039236.812500 171 174 166
771655.687500 255728.609375 1040176.437500 164 167 160
773670.250000 256028.937500 1041398.062500 163 167 160
775336.375000 256213.265625 1042147.875000 154 157 150
777365.312500 256516.781250 1043382.375000 149 150 145
779241.125000 256768.984375 1044408.187500 145 147 141
781127.750000 257024.031250 1045445.625000 139 141 135
783186.250000 257334.812500 1046709.687500 142 143 137
784889.125000 257528.046875 1047495.687500 151 151 144
786965.000000 257842.921875 1048776.500000 138 138 129
792873.812500 258678.234375 1052174.125000 147 144 132
794578.687500 258868.859375 1052949.375000 147 144 131
796414.375000 259101.500000 1053895.750000 140 137 124
807906.687500 259550.546875 1055722.125000 150 142 127
807915.750000 259192.968750 1054267.750000 146 136 121
813914.250000 258248.203125 1050424.875000 156 150 133
814894.625000 258204.625000 1050247.625000 156 151 135
815616.187500 258079.265625 1049737.750000 148 146 128
816413.062500 257978.046875 1049326.000000 147 144 126
816992.812500 256756.390625 1044356.937500 139 138 120
835029.562500 254462.640625 1035027.125000 175 157 115
835328.312500 254218.312500 1034033.375000 159 142 106
836739.437500 252981.359375 1029002.062500 184 164 110
836851.687500 252684.578125 1027794.937500 221 201 150
837385.875000 252515.828125 1027108.500000 225 205 154
838055.125000 252388.171875 1026589.250000 223 204 153
838602.625000 252224.218750 1025922.375000 228 210 162
839410.000000 252138.796875 1025574.875000 223 205 161
839647.750000 251882.687500 1024533.187500 206 187 148
839781.187500 251595.968750 1023367.000000 183 163 128
839770.500000 251266.906250 1022028.437500 163 143 109
847327.000000 249647.625000 1015442.062500 180 171 135
847780.187500 249462.984375 1014691.062500 186 175 143
848346.062500 249311.937500 1014076.625000 173 161 130
848936.687500 249168.500000 1013493.250000 167 152 123
849409.375000 248990.890625 1012770.750000 176 156 132
850107.250000 248879.656250 1012318.312500 183 161 138
851016.687500 248830.546875 1012118.625000 175 155 126
852095.562500 248831.046875 1012120.625000 165 148 113
853586.750000 248951.812500 1012611.812500 165 150 116
855520.062500 249201.031250 1013625.562500 172 156 126
857517.375000 249468.265625 1014712.500000 167 152 124
877636.250000 251520.171875 1023058.687500 151 139 104
879657.125000 251786.968750 1024143.875000 163 151 119
881351.687500 251959.828125 1024846.937500 182 170 139
882554.312500 251991.781250 1024976.875000 192 182 150
885078.687500 252400.578125 1026639.687500 188 178 144
888152.750000 252964.953125 1028935.250000 178 167 132
891733.937500 253672.171875 1031811.937500 170 160 123
895831.312500 254524.328125 1035278.062500 163 154 116
899031.812500 255119.875000 1037700.500000 150 142 106
607517.125000 259545.234375 1051150.250000 142 142 145
610206.250000 260214.921875 1053862.500000 154 154 156
613582.250000 261174.531250 1057748.875000 164 163 161
616235.062500 261823.359375 1060376.625000 169 168 166
619020.000000 262525.843750 1063221.625000 176 176 173
622694.687500 263602.406250 1067581.750000 184 183 179
625763.437500 264419.031250 1070889.125000 190 189 184
630016.437500 265732.187500 1076207.250000 191 191 186
633761.250000 266826.625000 1080639.625000 190 189 184
637478.937500 267905.656250 1085009.750000 188 186 181
641725.625000 269202.718750 1090262.875000 186 184 177
644767.625000 269990.656250 1093454.000000 186 184 176
648294.500000 270978.437500 1097454.375000 186 185 177
651080.812500 271653.656250 1100189.000000 186 187 180
653399.687500 272131.750000 1102125.375000 185 186 180
655911.687500 272688.468750 1104380.000000 186 187 180
657678.750000 272934.031250 1105374.500000 190 191 184
659424.125000 273169.718750 1106329.125000 194 195 188
660907.000000 273296.031250 1106840.625000 198 199 192
662070.625000 273290.125000 1106816.625000 199 199 193
663159.625000 273253.468750 1106668.250000 196 196 191
664106.500000 273158.500000 1106283.625000 194 194 189
664703.562500 272920.218750 1105318.500000 196 196 191
665348.375000 272702.375000 1104436.250000 199 199 194
665770.437500 272394.156250 1103188.000000 198 200 194
665900.812500 271967.875000 1101461.625000 196 201 194
666262.062500 271637.250000 1100122.500000 197 202 195
666038.937500 271069.906250 1097824.875000 198 202 196
666138.250000 270635.562500 1096065.875000 197 202 196
665987.562500 270101.343750 1093902.250000 197 202 195
665226.500000 269321.937500 1090745.625000 197 202 196
664909.062500 268724.468750 1088325.875000 198 202 196
663651.000000 267749.593750 1084377.625000 198 203 197
662975.125000 267012.593750 1081392.875000 198 205 197
661999.500000 266157.625000 1077930.250000 197 205 196
660100.562500 264935.062500 1072978.875000 199 206 199
658970.187500 264024.625000 1069291.750000 202 207 203
656606.312500 262623.968750 1063619.125000 201 205 202
655159.875000 261594.437500 1059449.500000 199 203 200
653462.250000 260468.343750 1054888.875000 199 203 200
650629.437500 258894.390625 1048514.437500 200 204 201
648899.375000 257763.906250 1043935.937500 199 204 200
645489.250000 255971.015625 1036674.875000 198 203 199
642421.687500 254319.875000 1029987.750000 198 202 199
640196.937500 253007.453125 1024672.437500 199 203 200
638814.750000 252031.890625 1020721.437500 198 202 200
639589.125000 251909.015625 1020223.812500 197 201 198
640767.187500 251945.312500 1020370.875000 199 203 198
642588.312500 252233.875000 1021539.500000 198 204 196
644321.062500 252486.875000 1022564.125000 195 200 193
644949.437500 252306.953125 1021835.500000 192 197 191
645001.562500 251902.578125 1020197.750000 191 196 189
644458.125000 251267.390625 1017625.250000 190 195 189
644296.937500 250783.078125 1015663.875000 191 196 190
643988.562500 250243.234375 1013477.437500 190 195 190
643282.437500 249550.859375 1010673.375000 189 193 189
643136.625000 249077.828125 1008757.625000 187 192 188
642315.250000 248345.171875 1005790.375000 186 192 187
641943.687500 247788.546875 1003536.125000 187 192 187
641496.062500 247204.484375 1001170.625000 191 193 189
640512.750000 246416.281250 997978.437500 190 192 188
640157.750000 245872.000000 995774.125000 189 191 187
639055.125000 245042.843750 992416.000000 188 190 187
638457.625000 244409.781250 989852.125000 187 189 186
637839.062500 243770.765625 987264.125000 187 189 186
636707.062500 242937.953125 983891.312500 186 188 185
636307.687500 242386.937500 981659.750000 186 188 184
635200.875000 241568.687500 978345.875000 184 186 183
634634.562500 240958.343750 975873.937500 184 186 183
634073.437500 240351.953125 973418.125000 184 186 183
632982.000000 239546.843750 970157.437500 184 186 183
632594.875000 239010.484375 967985.187500 183 185 183
631537.187500 238222.906250 964795.562500 183 186 183
631018.687500 237640.968750 962438.687500 184 186 182
630517.062500 237067.218750 960115.062500 186 188 183
629518.125000 236308.687500 957043.000000 188 191 186
629199.750000 235807.640625 955013.750000 188 191 186
628167.562500 235041.125000 951909.437500 187 190 186
627590.750000 234447.203125 949504.000000 186 189 184
627023.062500 233858.578125 947120.125000 187 189 184
626016.562500 233108.453125 944082.125000 190 192 186
625722.937500 232625.750000 942127.187500 192 195 190
624795.187500 231909.234375 939225.312500 191 195 193
624361.375000 231378.031250 937073.937500 191 195 194
623922.375000 230846.609375 934921.750000 191 195 193
622968.000000 230126.500000 932005.312500 189 193 192
622633.812500 229637.437500 930024.625000 188 192 191
621703.312500 228930.328125 927160.875000 191 194 193
621257.250000 228403.546875 925027.437500 194 198 197
620889.000000 227907.031250 923016.500000 197 200 199
620079.437500 227250.328125 920356.875000 197 201 200
619888.062500 226821.890625 918621.750000 198 202 200
619586.687500 226354.609375 916729.250000 197 201 200
619822.812500 226084.875000 915636.875000 197 201 199
620424.500000 225949.109375 915087.000000 198 204 200
620999.375000 225804.031250 914499.437500 203 208 204
621916.500000 225783.640625 914416.875000 207 212 208
622845.187500 225767.515625 914351.562500 205 210 205
623788.000000 225756.546875 914307.187500 200 205 198
624803.687500 225771.953125 914369.562500 196 201 195
625918.062500 225822.906250 914575.875000 199 204 198
627071.812500 225887.906250 914839.125000 204 209 203
627927.687500 225845.531250 914667.562500 208 213 207
628563.437500 225724.281250 914176.437500 207 212 206
629008.375000 225534.953125 913409.687500 202 206 200
629363.375000 225314.046875 912515.000000 200 204 198
629882.187500 225152.343750 911860.125000 202 207 200
630244.125000 224935.156250 910980.562500 203 208 201
630754.312500 224771.484375 910317.687500 202 207 200
631367.187500 224644.828125 909804.750000 201 206 200
631956.187500 224510.093750 909259.062500 199 203 197
632760.812500 224452.250000 909024.812500 196 200 194
633670.000000 224431.609375 908941.187500 195 200 193
634618.187500 224424.843750 908913.812500 196 202 195
635819.437500 224507.437500 909248.250000 199 205 197
637347.437500 224704.984375 910048.375000 203 209 201
638937.562500 224923.796875 910934.562500 208 215 206
640673.375000 225193.156250 912025.437500 213 220 212
642016.000000 225323.734375 912554.250000 215 223 218
643451.625000 225486.468750 913213.312500 213 222 217
645331.937500 225804.343750 914500.687500 211 219 214
647103.750000 226083.328125 915630.625000 210 218 213
649415.125000 226549.703125 917519.437500 208 217 212
651552.062500 226953.921875 919156.500000 206 214 209
653681.750000 227354.406250 920778.437500 204 213 208
655865.750000 227772.562500 922471.937500 205 214 209
657463.062500 227986.015625 923336.437500 207 216 211
659774.937500 228446.265625 925200.375000 209 218 213
662057.062500 228894.843750 927017.187500 209 218 213
664486.750000 229393.031250 929034.812500 211 220 215
667086.000000 229948.187500 931283.125000 215 224 219
669033.375000 230277.312500 932616.125000 213 222 217
672243.562500 231039.468750 935702.812500 206 215 210
675647.750000 231865.968750 939050.125000 201 210 204
679106.812500 232708.828125 942463.625000 202 211 206
682502.562500 233527.531250 945779.375000 213 222 217
684656.312500 233919.468750 947366.687500 227 235 230
687312.437500 234481.656250 949643.562500 234 243 238
689581.687500 234910.390625 951379.937500 234 244 239
691678.875000 235279.343750 952874.187500 235 244 240
693990.062500 235719.921875 954658.562500 238 245 243
695710.062500 235958.687500 955625.500000 238 246 244
698085.625000 236418.796875 957488.875000 240 246 243
700381.125000 236850.453125 959237.125000 239 243 240
702734.062500 237300.250000 961058.812500 233 237 236
705378.687500 237847.125000 963273.625000 230 235 234
707442.250000 238196.750000 964689.562500 230 235 234
709555.437500 238562.031250 966169.000000 230 236 234
711083.562500 238729.859375 966848.687500 231 237 236
712390.187500 238822.937500 967225.687500 230 237 235
713955.062500 239002.203125 967951.687500 225 232 229
715329.062500 239117.156250 968417.187500 223 230 225
717027.750000 239340.125000 969320.250000 227 233 226
718720.562500 239560.515625 970212.812500 226 232 223
720396.687500 239774.718750 971080.312500 217 224 214
722046.250000 239979.484375 971909.562500 208 216 207
723355.562500 240070.734375 972279.187500 208 216 208
724885.687500 240234.890625 972944.000000 215 222 215
726333.937500 240371.515625 973497.312500 214 219 215
727836.687500 240525.750000 974121.937500 197 201 199
729519.250000 240738.875000 974985.062500 186 189 188
731023.250000 240892.531250 975607.437500 194 195 193
732851.875000 241152.609375 976660.750000 198 199 194
734555.750000 241370.937500 977545.000000 188 189 182
736295.062500 241600.296875 978473.812500 183 184 174
738231.937500 241893.718750 979662.187500 177 177 164
739874.000000 242089.859375 980456.562500 167 167 153
741636.875000 242324.921875 981408.562500 164 164 151
743013.062500 242433.171875 981846.937500 161 161 149
744448.562500 242560.421875 982362.312500 156 155 145
746314.937500 242827.515625 983444.000000 149 148 137
748089.125000 243063.890625 984401.375000 146 143 134
750505.187500 243507.875000 986199.500000 144 141 133
757355.687500 244703.937500 991043.500000 152 145 137
758712.312500 244801.343750 991438.000000 171 165 156
760143.187500 244922.406250 991928.312500 168 163 152
761301.750000 244955.515625 992062.375000 142 136 124
764446.500000 245287.015625 993404.937500 142 137 126
766341.375000 245555.406250 994491.937500 156 152 141
768771.375000 245994.296875 996269.437500 151 147 135
771000.562500 246367.812500 997782.125000 141 137 125
773222.625000 246738.031250 999281.500000 145 141 129
775626.125000 247165.031250 1001010.875000 156 151 139
777483.187500 247417.000000 1002031.312500 149 144 132
779366.562500 247676.609375 1003082.750000 138 134 121
780864.687500 247813.250000 1003636.125000 141 139 125
785331.500000 247874.578125 1003884.500000 147 145 129
786280.125000 247836.828125 1003731.625000 154 147 136
813438.062500 248956.000000 1008264.250000 157 138 98
813523.750000 248654.218750 1007042.000000 171 153 118
812364.562500 246352.609375 997720.562500 168 151 100
812721.000000 246138.984375 996855.375000 190 174 122
813378.062500 246016.828125 996360.625000 206 189 138
813928.062500 245862.656250 995736.250000 214 196 149
814801.125000 245806.343750 995508.187500 203 185 142
815235.750000 245618.093750 994745.812500 186 169 130
815528.937500 245387.750000 993812.937500 176 158 125
815778.000000 245144.765625 992828.812500 176 158 128
816048.875000 244908.953125 991873.812500 174 156 125
816710.250000 244790.765625 991395.187500 156 136 106
826714.250000 244317.296875 989477.625000 144 139 104
827397.125000 244208.046875 989035.187500 145 137 103
828074.125000 244097.328125 988586.750000 158 146 114
828626.625000 243950.234375 987991.000000 189 173 144
829330.062500 243847.906250 987576.562500 216 196 169
830365.812500 243843.421875 987558.437500 217 196 168
831599.000000 243896.843750 987774.812500 201 181 150
833298.437500 244086.703125 988543.687500 188 171 138
835484.000000 244418.312500 989886.750000 176 160 129
837645.500000 244742.031250 991197.812500 152 138 109
854853.812500 247587.343750 1002721.187500 166 152 127
856745.125000 247825.734375 1003686.687500 165 150 125
867646.500000 249115.546875 1008910.375000 165 153 111
869033.875000 249205.484375 1009274.625000 188 176 135
871227.062500 249525.984375 1010572.625000 194 182 141
873551.687500 249883.296875 1012019.750000 190 178 137
876223.687500 250338.968750 1013865.250000 188 176 134
879553.187500 250981.156250 1016466.000000 184 173 131
882395.437500 251482.890625 1018498.062500 176 165 124
884633.500000 251811.406250 1019828.500000 164 153 114
904936.937500 249924.906250 1012188.312500 148 138 107
904642.937500 249546.656250 1010656.375000 159 150 119
609182.937500 256652.609375 1034974.312500 140 136 132
612895.687500 257750.765625 1039402.687500 144 139 134
617444.062500 259195.750000 1045229.687500 148 142 137
620995.750000 260217.906250 1049351.625000 147 145 141
624037.437500 261023.046875 1052598.500000 148 149 145
627519.187500 262009.046875 1056574.625000 153 153 149
629887.937500 262527.656250 1058666.000000 158 159 154
632511.750000 263150.500000 1061177.625000 165 165 161
634635.000000 263563.281250 1062842.125000 171 170 166
636373.562500 263815.093750 1063857.625000 177 175 171
638202.125000 264103.250000 1065019.625000 182 180 175
639576.312500 264202.687500 1065420.625000 185 183 178
640818.687500 264247.406250 1065601.000000 189 187 183
641930.562500 264238.281250 1065564.250000 194 192 188
642800.750000 264129.875000 1065127.000000 192 192 187
643549.437500 263972.000000 1064490.375000 189 192 185
644306.812500 263818.250000 1063870.375000 194 197 190
644669.375000 263503.625000 1062601.625000 198 200 194
645228.375000 263270.312500 1061660.750000 200 203 196
645448.687500 262899.812500 1060166.625000 202 205 198
645092.312500 262296.156250 1057732.375000 201 204 197
644947.437500 261780.421875 1055652.625000 201 204 197
643741.000000 260836.375000 1051845.625000 201 204 197
642918.312500 260050.796875 1048677.750000 200 205 198
641734.562500 259122.171875 1044933.000000 202 208 200
639741.937500 257870.718750 1039886.437500 202 208 201
638596.562500 256964.500000 1036232.000000 199 204 198
636321.687500 255607.671875 1030760.500000 196 201 196
634905.625000 254599.937500 1026696.687500 194 200 194
633426.875000 253570.562500 1022545.625000 194 200 194
631057.937500 252188.953125 1016974.187500 195 201 195
629780.250000 251247.437500 1013177.500000 194 200 194
627419.875000 249877.953125 1007654.875000 193 199 193
625380.375000 248640.703125 1002665.562500 194 199 194
624319.750000 247796.218750 999260.125000 195 201 196
624422.062500 247415.359375 997724.312500 194 200 195
626244.875000 247716.390625 998938.187500 193 198 193
628114.937500 248035.031250 1000223.125000 197 202 196
629780.250000 248271.875000 1001178.250000 199 205 197
631059.250000 248355.890625 1001517.062500 197 202 195
631630.937500 248161.734375 1000734.062500 196 201 194
631789.187500 247806.046875 999299.750000 196 201 194
631482.562500 247269.546875 997136.312500 196 201 194
631545.250000 246879.203125 995562.187500 198 203 197
631490.437500 246444.343750 993808.562500 199 204 198
631071.062500 245868.859375 991487.875000 198 204 197
631095.562500 245467.968750 989871.187500 198 203 196
630455.750000 244810.468750 987219.812500 197 202 196
630164.625000 244290.281250 985122.125000 196 201 195
629752.000000 243724.843750 982841.937500 195 201 194
628844.187500 242969.953125 979797.750000 195 200 194
628525.562500 242444.812500 977680.062500 195 200 194
627474.562500 241639.375000 974432.062500 195 200 194
626911.437500 241024.156250 971951.187500 195 200 194
626307.062500 240395.156250 969414.687500 196 201 195
625181.437500 239568.468750 966080.937500 195 200 194
624762.062500 239014.687500 963847.812500 193 198 192
623621.500000 238187.265625 960511.187500 192 196 191
623020.000000 237568.093750 958014.312500 191 196 190
622410.875000 236948.062500 955514.000000 190 195 189
621251.125000 236120.765625 952177.812500 187 191 186
620799.750000 235564.968750 949936.500000 185 188 183
619706.687500 234767.875000 946722.187500 185 188 184
619193.625000 234192.750000 944402.875000 185 188 183
618715.250000 233632.578125 942143.937500 184 188 182
617734.687500 232884.890625 939128.875000 186 189 184
617421.250000 232390.734375 937136.125000 187 189 183
616365.875000 231619.343750 934025.437500 186 188 181
615726.625000 231006.562500 931554.375000 183 185 179
615100.250000 230400.578125 929110.687500 180 183 177
614066.437500 229644.187500 926060.437500 179 180 174
613770.625000 229165.750000 924131.062500 178 180 175
612928.187500 228485.062500 921386.187500 177 181 179
612576.750000 227989.312500 919387.000000 177 182 181
612304.125000 227524.421875 917512.250000 177 182 180
611625.562500 226910.421875 915036.312500 178 182 181
611530.562500 226514.515625 913439.750000 178 182 181
611002.812500 225959.828125 911202.937500 178 182 181
610906.437500 225566.171875 909615.500000 180 184 183
610865.625000 225194.265625 908115.687500 182 186 185
610408.062500 224670.125000 906002.062500 184 188 187
610394.750000 224310.890625 904553.437500 185 189 188
610237.250000 223899.875000 902896.000000 186 190 190
610521.375000 223651.968750 901896.250000 188 192 191
611059.875000 223497.859375 901274.812500 190 195 192
611519.375000 223315.359375 900538.875000 194 199 194
612286.500000 223245.625000 900257.687500 197 202 196
613005.437500 223158.562500 899906.562500 196 201 195
613805.375000 223101.187500 899675.250000 192 197 191
614653.625000 223061.562500 899515.437500 189 194 188
615495.937500 223019.890625 899347.375000 190 195 190
616420.000000 223007.906250 899299.062500 194 199 193
617062.750000 222894.359375 898841.187500 197 202 196
617602.875000 222744.156250 898235.500000 197 202 196
618027.375000 222552.781250 897463.750000 194 199 193
618366.812500 222331.421875 896571.062500 194 199 193
618906.187500 222182.500000 895970.562500 197 202 197
619282.750000 221975.687500 895136.562500 199 204 199
619785.500000 221814.656250 894487.187500 199 204 198
620379.125000 221686.609375 893970.812500 199 204 198
620960.500000 221554.578125 893438.375000 198 203 197
621757.750000 221499.875000 893217.812500 196 201 196
622566.125000 221449.281250 893013.750000 194 199 194
623391.625000 221404.906250 892834.812500 194 199 194
624387.000000 221420.937500 892899.437500 196 201 195
625628.875000 221524.187500 893315.812500 198 203 198
626977.750000 221664.937500 893883.437500 202 206 201
628253.125000 221779.343750 894344.750000 204 209 203
629177.750000 221769.765625 894306.125000 203 208 204
630131.875000 221770.593750 894309.437500 202 207 204
631410.312500 221885.375000 894772.375000 200 206 202
632762.250000 222025.609375 895337.812500 199 205 201
634416.687500 222271.406250 896329.062500 197 202 198
635991.062500 222488.453125 897204.312500 195 200 196
637593.875000 222714.796875 898117.062500 194 200 196
639228.437500 222951.515625 899071.625000 194 200 196
640547.625000 223077.703125 899580.562500 195 201 197
642323.812500 223362.437500 900728.750000 195 202 198
644120.750000 223653.531250 901902.625000 197 203 199
645986.312500 223967.531250 903168.812500 197 204 200
647904.437500 224298.812500 904504.750000 196 203 199
649397.250000 224482.093750 905243.812500 195 201 197
651463.062500 224862.593750 906778.250000 191 198 194
653564.687500 225254.328125 908357.937500 187 195 191
655649.937500 225639.250000 909910.187500 187 197 191
657708.000000 226013.718750 911420.250000 192 202 197
659186.437500 226188.171875 912123.750000 200 209 204
660909.625000 226445.984375 913163.437500 205 214 209
662516.437500 226663.234375 914039.437500 207 214 209
663983.437500 226832.078125 914720.375000 209 214 210
665423.937500 226991.375000 915362.750000 214 219 214
666547.687500 227042.312500 915568.125000 222 227 222
667738.312500 227115.859375 915864.750000 226 232 227
668886.875000 227174.906250 916102.875000 224 230 226
669992.375000 227219.156250 916281.312500 221 228 223
671135.562500 227276.078125 916510.812500 220 226 221
672204.000000 227307.531250 916637.687500 221 227 223
673217.500000 227320.343750 916689.375000 220 225 223
674141.875000 227303.078125 916619.687500 215 222 220
675035.500000 227275.484375 916508.437500 213 222 219
675953.687500 227256.265625 916430.937500 216 225 222
676901.312500 227246.968750 916393.437500 223 232 229
677979.687500 227281.531250 916532.812500 228 237 233
679149.625000 227346.625000 916795.312500 228 237 235
680356.187500 227423.796875 917106.562500 224 233 230
681506.500000 227481.984375 917341.187500 218 228 220
682543.500000 227502.203125 917422.687500 216 227 218
683691.562500 227559.343750 917653.125000 218 228 220
684831.750000 227613.703125 917872.375000 216 225 218
686036.687500 227689.406250 918177.625000 211 220 213
687341.687500 227798.046875 918615.750000 208 217 211
688577.937500 227883.640625 918960.875000 210 217 212
690023.187500 228038.062500 919583.625000 211 218 212
691395.937500 228168.109375 920108.000000 209 216 209
692828.562500 228317.515625 920710.500000 205 213 204
694445.187500 228527.062500 921555.500000 201 208 197
695900.250000 228682.906250 922184.000000 196 202 191
697370.937500 228843.468750 922831.437500 196 200 189
698403.125000 228859.859375 922897.562500 197 201 191
699605.437500 228931.890625 923188.062500 196 199 191
701342.000000 229178.296875 924181.687500 197 199 192
703128.187500 229440.187500 925237.750000 200 202 194
706165.125000 230108.921875 927934.562500 198 198 192
709423.750000 230847.937500 930914.687500 190 190 185
712888.500000 231651.875000 934156.625000 187 186 181
716376.187500 232461.000000 937419.500000 189 187 182
718701.500000 232891.203125 939154.375000 189 186 181
721592.437500 233503.265625 941622.500000 186 182 175
723920.500000 233931.750000 943350.437500 176 173 165
726230.250000 234353.109375 945049.625000 174 170 163
729111.750000 234957.562500 947487.125000 182 177 171
731427.375000 235378.250000 949183.562500 186 180 176
734814.062500 236141.968750 952263.312500 176 171 166
738037.062500 236851.062500 955122.812500 161 155 150
741257.875000 237557.500000 957971.562500 158 153 147
744628.625000 238309.984375 961006.000000 163 159 152
746903.437500 238710.140625 962619.687500 159 156 148
749893.500000 239337.468750 965149.437500 145 141 133
752522.625000 239848.062500 967208.437500 144 141 133
755075.875000 240333.078125 969164.375000 144 142 133
762804.062500 241801.984375 975087.812500 154 152 142
764881.375000 242131.078125 976414.937500 165 160 150
766796.250000 242407.906250 977531.312500 151 145 134
785184.250000 244898.265625 987573.875000 153 143 120
786929.625000 245114.531250 988446.000000 179 170 146
788393.687500 245242.734375 988962.937500 177 168 141
790033.812500 245425.281250 989699.062500 149 138 109
796604.000000 244210.421875 984800.062500 169 152 127
796429.500000 243836.125000 983290.687500 157 138 117
795211.875000 242825.203125 979214.062500 159 147 112
794758.750000 242369.203125 977375.187500 180 170 129
794253.687500 241898.578125 975477.312500 188 177 134
794525.812500 241665.593750 974537.812500 184 173 127
795202.750000 241556.171875 974096.562500 186 175 127
795771.062500 241414.062500 973523.500000 202 189 142
796683.750000 241376.687500 973372.750000 210 197 152
797264.562500 241238.968750 972817.375000 205 193 150
797671.187500 241048.984375 972051.250000 202 188 149
798136.562500 240877.218750 971358.625000 202 188 151
798813.750000 240769.734375 970925.187500 207 192 157
799845.812500 240769.359375 970923.687500 210 195 160
800831.437500 240755.015625 970865.812500 202 187 152
801694.625000 240703.968750 970659.937500 184 170 136
802720.000000 240701.656250 970650.625000 169 156 124
804081.187500 240799.921875 971046.937500 165 152 121
805589.437500 240941.937500 971619.625000 176 163 132
807092.562500 241082.046875 972184.625000 183 171 140
808338.000000 241144.937500 972438.250000 172 165 132
809458.750000 241170.500000 972541.312500 157 153 120
810610.750000 241205.296875 972681.625000 155 155 121
811673.375000 241213.468750 972714.562500 170 170 136
812642.000000 241193.687500 972634.812500 191 190 156
813559.562500 241158.843750 972494.312500 203 200 165
814414.250000 241105.468750 972279.062500 200 193 160
815142.625000 241014.875000 971913.750000 197 185 153
815896.312500 240932.000000 971579.500000 190 175 145
817085.312500 240977.703125 971763.875000 175 156 128
818500.312500 241089.859375 972216.125000 146 126 100
820371.437500 241335.921875 973208.375000 125 107 81
822688.875000 241712.484375 974726.937500 136 120 94
824873.312500 242049.093750 976084.312500 164 152 125
827644.500000 242556.796875 978131.687500 175 166 137
829878.687500 242906.046875 979540.062500 155 148 119
844588.062500 245668.468750 990679.750000 188 175 148
846923.187500 246040.546875 992180.187500 209 192 165
849616.437500 246515.609375 994095.937500 168 150 124
864232.750000 248589.625000 1002459.625000 164 152 105
866683.500000 248987.203125 1004062.875000 176 163 118
869348.375000 249445.234375 1005909.937500 179 164 122
872561.062500 250059.125000 1008385.500000 179 164 124
875197.625000 250506.609375 1010190.000000 182 168 128
877417.875000 250834.000000 1011510.187500 186 173 134
878721.250000 250898.765625 1011771.437500 188 174 136
879202.062500 250728.812500 1011086.000000 180 168 131
879248.312500 250435.468750 1009903.125000 163 152 117
898211.062500 249433.531250 1005862.687500 160 146 106
898474.562500 249209.687500 1004960.062500 182 167 126
898649.000000 248961.718750 1003960.062500 193 178 139
899128.375000 248798.687500 1003302.687500 173 160 123
605279.187500 249779.484375 1002953.375000 140 137 134
606548.625000 249862.703125 1003287.562500 144 143 139
607666.750000 249883.437500 1003370.812500 150 149 145
608642.500000 249845.593750 1003218.875000 158 157 153
609663.750000 249826.578125 1003142.500000 165 164 160
610383.625000 249684.343750 1002571.375000 171 170 165
610724.187500 249387.703125 1001380.312500 176 177 171
611046.500000 249084.640625 1000163.375000 181 183 177
610543.812500 248446.953125 997602.812500 188 189 183
610180.937500 247868.265625 995279.187500 196 197 193
609502.687500 247163.671875 992450.000000 203 204 201
608296.062500 246247.640625 988771.812500 207 209 205
607724.562500 245591.437500 986136.875000 207 210 206
606393.250000 244630.968750 982280.312500 204 207 202
605651.750000 243911.343750 979390.687500 201 204 200
604971.125000 243218.656250 976609.312500 200 203 199
603782.750000 242324.546875 973019.187500 200 203 197
603382.062500 241749.125000 970708.687500 198 201 195
602519.625000 240990.968750 967664.437500 197 200 194
601855.625000 240314.625000 964948.625000 198 202 196
602006.375000 239965.359375 963546.187500 200 203 197
603250.500000 240052.375000 963895.625000 199 203 197
605527.312500 240549.328125 965891.062500 196 200 194
607654.062500 240985.078125 967640.750000 194 200 193
609119.375000 241157.515625 968333.125000 194 202 194
610100.250000 241137.875000 968254.312500 195 202 194
610767.500000 240994.562500 967678.812500 194 202 194
611186.625000 240753.968750 966712.750000 193 201 193
611301.875000 240394.703125 965270.187500 193 200 192
611692.000000 240144.562500 964265.750000 192 200 192
611972.000000 239852.093750 963091.437500 192 199 192
611947.062500 239441.281250 961441.812500 192 200 193
612196.375000 239138.984375 960228.000000 193 200 193
611866.187500 238611.671875 958110.687500 193 200 193
611777.562500 238180.187500 956378.062500 193 200 193
611535.125000 237690.359375 954411.250000 194 201 194
610864.687500 237036.046875 951784.000000 195 202 195
610681.875000 236572.828125 949924.000000 195 202 195
609832.875000 235853.484375 947035.562500 195 202 195
609414.875000 235302.906250 944824.812500 197 204 197
608929.500000 234728.218750 942517.187500 198 205 198
607945.875000 233963.625000 939447.125000 198 205 198
607587.937500 233441.968750 937352.437500 197 203 197
606541.437500 232657.906250 934204.187500 196 203 196
605997.750000 232068.937500 931839.312500 196 203 196
605435.875000 231474.968750 929454.250000 197 203 196
604348.250000 230682.250000 926271.187500 195 203 196
603931.250000 230147.656250 924124.625000 195 203 195
602907.750000 229384.078125 921058.562500 195 202 195
602443.750000 228835.468750 918855.750000 196 202 195
602014.750000 228301.937500 916713.437500 194 201 194
601107.687500 227589.109375 913851.187500 193 200 193
600834.437500 227118.203125 911960.250000 193 199 191
599837.687500 226375.734375 908979.000000 192 197 189
599221.812500 225779.187500 906583.687500 189 193 186
598619.000000 225189.468750 904215.750000 185 189 182
597632.562500 224457.546875 901276.812500 181 185 177
597361.625000 223996.296875 899424.687500 178 182 174
596632.562500 223364.984375 896889.750000 174 179 173
596376.875000 222912.609375 895073.375000 171 176 172
596267.875000 222516.453125 893482.625000 170 175 170
595861.812500 222010.875000 891452.562500 170 174 170
595993.875000 221707.062500 890232.687500 169 174 170
595841.187500 221298.468750 888592.000000 169 174 170
596050.562500 221025.453125 887495.687500 169 174 170
596307.562500 220770.890625 886473.562500 170 175 171
596213.750000 220387.484375 884934.125000 173 178 174
596415.187500 220114.234375 883836.875000 176 181 177
596447.625000 219779.578125 882493.125000 177 182 179
596803.500000 219564.968750 881631.375000 178 183 180
597300.500000 219402.875000 880980.500000 181 186 181
597678.187500 219197.546875 880156.062500 185 190 184
598316.062500 219088.109375 879716.625000 186 191 185
598857.187500 218943.656250 879136.562500 186 191 185
599534.187500 218849.250000 878757.500000 183 188 182
600235.625000 218764.031250 878415.375000 181 186 180
600841.062500 218644.171875 877934.062500 182 187 181
601560.750000 218566.171875 877620.875000 184 189 183
602011.812500 218390.968750 876917.312500 186 191 185
602461.000000 218215.625000 876213.312500 187 192 185
602855.375000 218021.000000 875431.812500 187 192 185
603166.875000 217797.062500 874532.625000 188 193 186
603709.250000 217657.046875 873970.437500 191 196 189
604065.125000 217450.328125 873140.375000 193 198 191
604523.125000 217280.968750 872460.312500 193 197 191
605055.000000 217138.593750 871888.625000 192 197 191
605581.187500 216994.656250 871310.687500 192 197 191
606338.625000 216933.890625 871066.687500 192 197 191
607011.125000 216842.953125 870701.500000 191 196 190
607686.625000 216753.375000 870341.875000 191 196 190
608463.937500 216700.328125 870128.812500 193 198 191
609406.375000 216706.140625 870152.187500 195 200 194
610507.937500 216768.453125 870402.375000 198 203 197
611401.062500 216756.671875 870355.062500 199 204 198
612036.062500 216653.562500 869941.062500 196 201 195
612654.062500 216544.765625 869504.187500 195 200 194
613451.437500 216499.593750 869322.812500 195 200 195
614430.375000 216518.531250 869398.875000 195 200 194
615501.937500 216570.015625 869605.562500 194 199 193
616588.937500 216626.750000 869833.375000 193 198 192
617707.062500 216694.234375 870104.375000 192 198 192
618791.375000 216749.687500 870327.062500 192 198 192
619782.125000 216772.250000 870417.625000 192 198 192
620970.937500 216863.906250 870785.625000 192 197 192
622255.812500 216988.796875 871287.125000 192 198 192
623537.187500 217112.078125 871782.187500 192 197 192
624717.937500 217200.031250 872135.312500 189 195 190
625697.500000 217217.875000 872206.937500 188 193 190
626751.375000 217261.406250 872381.750000 189 195 191
627826.437500 217312.156250 872585.562500 187 194 190
628883.312500 217356.484375 872763.500000 185 193 188
629919.937500 217393.687500 872912.875000 186 194 190
630880.062500 217404.406250 872955.937500 189 197 192
631863.937500 217423.265625 873031.687500 190 197 193
632905.625000 217461.937500 873186.937500 189 195 191
633843.187500 217464.765625 873198.312500 189 193 190
634616.562500 217411.343750 872983.812500 192 197 194
635313.187500 217331.828125 872664.562500 199 203 200
635689.312500 217143.046875 871906.500000 202 207 203
636064.562500 216954.546875 871149.625000 199 204 200
636334.375000 216730.671875 870250.687500 195 200 196
636472.000000 216462.484375 869173.812500 193 197 194
636867.875000 216282.765625 868452.187500 192 197 193
637070.500000 216038.078125 867469.687500 192 198 194
637480.687500 215864.343750 866772.062500 191 197 194
637949.562500 215710.968750 866156.187500 191 197 195
638270.000000 215507.921875 865340.937500 194 201 199
638813.062500 215380.515625 864829.312500 200 208 205
639314.375000 215239.421875 864262.750000 204 211 209
640007.187500 215163.109375 863956.375000 202 209 209
640785.375000 215115.671875 863765.875000 201 208 207
641465.937500 215035.656250 863444.562500 203 211 205
642233.812500 214985.078125 863241.500000 203 210 202
643043.250000 214948.562500 863094.875000 198 206 199
643923.375000 214935.734375 863043.375000 196 204 197
644913.437500 214959.578125 863139.125000 196 204 196
645970.187500 215005.562500 863323.750000 197 206 197
647050.375000 215059.203125 863539.125000 198 207 199
648306.750000 215171.171875 863988.687500 200 209 201
649542.875000 215276.093750 864410.000000 201 210 202
650833.000000 215398.609375 864901.937500 201 210 203
652230.187500 215556.156250 865534.625000 200 210 202
653489.250000 215667.671875 865982.312500 199 209 202
654738.187500 215775.531250 866415.500000 200 209 202
655606.562500 215757.859375 866344.500000 203 211 204
656679.250000 215807.390625 866543.375000 205 212 205
658276.937500 216029.046875 867433.375000 205 213 205
659971.312500 216281.781250 868448.250000 205 212 205
662943.375000 216951.937500 871139.125000 204 209 203
666123.562500 217688.250000 874095.687500 203 207 201
669603.625000 218520.343750 877436.875000 202 206 201
673250.875000 219404.609375 880987.500000 202 207 201
675767.375000 219918.437500 883050.687500 202 206 200
678992.250000 220661.062500 886032.562500 201 203 197
681625.937500 221209.765625 888235.812500 199 200 194
684169.187500 221727.609375 890315.187500 198 198 193
687168.062500 222391.515625 892980.937500 196 196 190
689393.437500 222803.578125 894635.500000 195 193 188
692785.000000 223590.890625 897796.875000 193 191 186
696066.500000 224340.562500 900807.062500 188 186 181
699399.812500 225104.843750 903875.937500 187 184 180
702906.000000 225922.578125 907159.437500 188 186 182
705250.812500 226365.312500 908937.187500 188 186 181
708627.312500 227137.515625 912037.875000 179 178 172
711671.625000 227801.281250 914703.125000 170 168 163
714820.062500 228496.515625 917494.750000 170 167 162
718620.625000 229398.031250 921114.625000 180 177 172
721501.750000 230003.984375 923547.750000 181 179 174
724958.250000 230791.468750 926709.750000 177 174 169
727538.875000 231298.343750 928745.062500 174 171 162
729968.000000 231755.750000 930581.687500 168 166 153
733083.875000 232429.656250 933287.625000 158 159 145
735539.000000 232892.515625 935146.250000 161 166 150
738700.437500 233577.468750 937896.500000 167 173 156
741353.437500 234100.015625 939994.750000 159 163 148
743939.062500 234599.921875 942002.062500 149 150 138
746959.312500 235235.343750 944553.500000 150 149 137
749232.812500 235634.203125 946155.062500 158 154 143
752073.937500 236210.281250 948468.187500 161 154 142
754519.562500 236660.765625 950277.062500 164 157 141
756771.937500 237049.500000 951838.000000 168 165 144
759186.125000 237487.828125 953598.000000 176 174 150
760918.437500 237711.937500 954497.875000 186 183 156
762945.500000 238027.421875 955764.687500 188 182 155
764772.687500 238279.796875 956778.062500 176 167 142
766407.062500 238471.500000 957547.812500 157 145 122
770368.375000 236869.437500 951115.000000 173 160 140
769926.250000 236422.843750 949321.687500 188 176 155
768581.000000 235700.453125 946421.062500 192 183 161
767669.562500 235112.828125 944061.562500 208 201 174
766669.562500 234499.640625 941599.375000 214 207 175
766613.437500 234176.390625 940301.437500 195 188 152
767122.937500 234026.531250 939699.687500 184 177 137
767609.875000 233870.171875 939071.875000 200 193 150
768590.875000 233864.578125 939049.375000 220 213 169
769432.750000 233816.718750 938857.250000 226 218 176
770071.312500 233707.265625 938417.750000 225 217 174
770923.812500 233662.953125 938239.750000 215 206 163
772211.875000 233750.593750 938591.687500 204 195 152
773755.062500 233915.140625 939252.437500 207 198 155
775497.562500 234139.437500 940153.000000 220 211 166
776948.000000 234275.078125 940697.687500 220 209 165
778490.250000 234438.031250 941352.000000 211 197 157
780418.937500 234716.781250 942471.312500 207 192 154
782198.000000 234949.890625 943407.312500 203 189 152
784071.750000 235210.796875 944454.937500 197 183 148
785540.312500 235349.625000 945012.375000 180 167 135
786875.062500 235448.078125 945407.687500 167 158 126
788416.125000 235607.921875 946049.500000 183 178 145
789777.437500 235713.718750 946474.375000 213 211 178
791133.000000 235817.515625 946891.125000 227 224 191
792323.625000 235871.968750 947109.812500 226 221 189
793359.250000 235880.203125 947142.812500 208 201 170
794238.375000 235841.906250 946989.062500 162 151 121
794990.937500 235766.203125 946685.125000 114 99 72
796200.187500 235825.968750 946925.062500 93 76 52
797614.375000 235946.187500 947407.812500 102 86 63
799506.250000 236207.218750 948455.937500 130 115 94
801883.562500 236610.859375 950076.687500 157 145 123
804116.125000 236970.812500 951522.062500 180 170 148
807197.437500 237579.671875 953966.812500 187 181 156
809802.500000 238047.000000 955843.312500 173 170 143
812758.562500 238616.203125 958128.875000 156 154 126
816701.625000 239473.390625 961570.812500 144 141 115
827299.500000 241672.421875 970400.687500 151 142 116
830211.125000 242220.593750 972601.812500 184 170 144
833656.937500 242923.078125 975422.500000 164 147 122
843946.000000 244702.390625 982567.125000 194 180 147
846568.312500 245158.968750 984400.375000 198 183 144
848533.937500 245424.468750 985466.437500 159 145 101
851337.437500 245931.375000 987501.875000 140 126 81
854008.937500 246398.921875 989379.250000 147 132 88
856785.750000 246895.671875 991373.875000 147 129 90
860053.562500 247532.531250 993931.062500 148 129 93
862614.625000 247964.640625 995666.187500 162 144 110
864986.937500 248341.515625 997179.500000 180 164 129
866699.000000 248528.140625 997928.812500 188 173 135
867501.375000 248453.765625 997630.187500 191 176 135
867469.875000 248141.046875 996374.500000 192 178 134
866986.437500 247699.968750 994603.375000 188 174 129
866834.687500 247354.609375 993216.687500 182 168 124
867700.687500 247300.156250 992998.000000 185 170 127
869027.750000 247377.093750 993306.937500 184 171 129
870174.187500 247402.484375 993408.875000 159 149 109
889143.750000 247975.234375 995708.687500 163 147 96
889554.750000 247794.515625 994983.062500 201 183 126
890084.562500 247647.312500 994391.937500 215 195 138
890438.000000 247451.421875 993605.375000 205 184 131
890343.687500 247131.734375 992321.750000 175 155 111
583936.312500 238220.812500 952470.937500 147 144 146
584212.375000 237920.437500 951269.937500 163 160 161
584265.437500 237530.421875 949710.562500 172 170 170
584561.437500 237240.343750 948550.750000 174 175 174
584550.375000 236826.859375 946897.500000 175 176 175
584791.187500 236516.687500 945657.437500 176 177 176
585098.750000 236234.515625 944529.187500 178 180 178
585249.562500 235890.125000 943152.250000 180 182 179
585748.437500 235687.000000 942340.062500 183 184 181
586094.437500 235423.125000 941285.062500 187 189 185
586456.187500 235166.468750 940258.812500 193 195 191
587204.562500 235065.484375 939855.062500 198 200 196
588563.312500 235208.750000 940427.875000 201 203 198
590352.625000 235523.312500 941685.625000 201 202 198
592017.250000 235787.125000 942740.375000 197 201 196
593239.375000 235874.109375 943088.250000 195 202 195
594151.750000 235837.890625 942943.375000 198 205 198
594926.250000 235747.109375 942580.437500 200 207 200
595584.625000 235610.734375 942035.125000 200 207 200
596050.687500 235398.843750 941188.000000 199 206 199
596695.062500 235257.968750 940624.750000 197 205 197
597217.562500 235069.593750 939871.500000 196 203 197
597465.812500 234774.093750 938690.062500 196 203 198
597853.937500 234534.437500 937731.875000 198 204 200
597760.125000 234106.859375 936022.250000 199 205 201
597861.000000 233756.796875 934622.625000 198 205 199
597801.437500 233345.296875 932977.312500 196 203 196
597360.750000 232786.625000 930743.562500 194 202 194
597310.312500 232381.640625 929124.375000 192 200 192
596658.500000 231744.390625 926576.500000 191 199 191
596382.687500 231255.062500 924620.000000 191 199 191
596020.125000 230733.765625 922535.750000 192 200 192
595187.312500 230032.437500 919731.625000 191 199 191
594904.750000 229545.703125 917785.562500 190 198 190
593985.750000 228815.437500 914865.750000 189 197 189
593533.250000 228266.937500 912672.687500 190 197 190
593066.562500 227714.812500 910465.125000 192 199 192
592126.687500 226983.078125 907539.437500 191 200 192
591812.062500 226493.031250 905580.125000 190 199 192
590906.500000 225778.781250 902724.312500 191 199 192
590492.625000 225254.406250 900627.750000 192 199 192
590100.062500 224739.843750 898570.437500 192 199 192
589267.125000 224059.515625 895850.250000 192 199 191
589040.187500 223611.421875 894058.687500 192 199 191
588160.062500 222917.234375 891283.125000 192 198 191
587663.562500 222370.406250 889096.750000 192 197 190
587179.187500 221829.953125 886935.875000 192 196 190
586303.812500 221143.734375 884192.187500 190 195 188
586073.875000 220702.765625 882429.125000 189 194 187
585424.500000 220105.546875 880041.250000 191 194 188
585220.875000 219677.531250 878329.937500 190 192 187
585181.875000 219312.578125 876870.750000 187 189 184
584908.375000 218861.046875 875065.375000 186 188 183
585149.000000 218603.031250 874033.750000 186 188 183
585146.437500 218255.125000 872642.750000 184 186 181
585445.312500 218020.562500 871704.937500 180 182 178
585792.125000 217804.578125 870841.375000 178 180 175
585855.187500 217483.937500 869559.312500 179 181 177
586174.687500 217259.343750 868661.375000 180 183 178
586312.875000 216968.375000 867497.937500 180 182 178
586701.812500 216770.953125 866708.625000 178 181 177
587180.625000 216607.312500 866054.375000 179 183 177
587533.375000 216397.765625 865216.500000 181 186 180
588123.500000 216276.156250 864730.312500 182 187 181
588603.312500 216114.421875 864083.625000 181 186 180
589237.937500 216009.953125 863665.937500 178 183 177
589885.500000 215910.546875 863268.500000 177 182 176
590404.562500 215764.468750 862684.500000 177 182 176
591044.937500 215663.140625 862279.312500 178 182 176
591415.500000 215463.812500 861482.312500 178 183 176
591818.562500 215276.906250 860735.062500 178 183 176
592182.875000 215076.531250 859933.875000 180 185 178
592463.312500 214846.328125 859013.500000 182 187 180
592989.062500 214705.687500 858451.125000 184 189 182
593297.312500 214486.843750 857576.125000 184 189 182
593693.000000 214300.218750 856830.000000 183 188 181
594152.062500 214137.015625 856177.437500 182 187 180
594609.437500 213973.703125 855524.500000 182 187 180
595323.500000 213903.140625 855242.312500 182 187 180
595904.687500 213785.078125 854770.312500 184 189 182
596486.625000 213667.671875 854300.875000 186 191 184
597150.812500 213580.062500 853950.562500 187 192 185
597941.562500 213537.890625 853782.000000 189 194 187
598922.125000 213563.515625 853884.437500 191 197 190
599712.312500 213521.312500 853715.687500 192 197 190
600340.875000 213421.781250 853317.687500 191 194 188
600938.687500 213311.609375 852877.250000 190 192 187
601605.500000 213226.234375 852535.875000 190 193 187
602427.875000 213196.171875 852415.687500 190 193 187
603257.875000 213168.906250 852306.687500 190 193 188
604164.750000 213168.812500 852306.312500 191 194 189
605061.562500 213165.203125 852291.875000 191 194 188
605824.187500 213114.406250 852088.750000 190 194 188
606558.875000 213053.921875 851846.937500 191 194 188
607343.000000 213010.968750 851675.187500 190 194 188
608305.750000 213030.703125 851754.125000 189 193 187
609232.875000 213037.921875 851783.000000 189 193 187
609921.000000 212961.687500 851478.125000 188 192 187
610533.312500 212859.218750 851068.500000 187 191 187
611151.437500 212759.078125 850668.062500 186 190 186
611944.562500 212720.078125 850512.125000 183 188 184
