ply
		format ascii 1.0
		element vertex 69914
		property float x
		property float y
		property float z
		property uchar red
		property uchar green
		property uchar blue
		end_header
478766.406250 24673.445312 724342.500000 160 182 145
479728.531250 24683.283203 724631.312500 162 182 147
480237.093750 24669.792969 724235.250000 161 179 147
480488.812500 24643.171875 723453.687500 173 188 160
482012.343750 24681.759766 724586.562500 187 203 175
481858.406250 24634.464844 723198.125000 196 210 185
486418.781250 24827.951172 728878.375000 196 206 185
495988.906250 25276.125000 742035.437500 182 194 174
506485.218750 25769.996094 756534.125000 155 168 148
545248.187500 46859.468750 1333982.750000 181 176 172
345917.156250 29651.447266 844109.437500 234 229 224
272372.656250 23286.857422 662924.000000 255 250 247
238339.984375 20324.544922 578593.687500 255 255 251
221417.750000 18832.835938 536128.125000 255 255 253
226357.171875 19203.476562 546679.375000 255 254 255
230552.406250 19509.244141 555383.875000 254 254 254
231517.625000 19540.822266 556282.875000 255 255 255
232703.562500 19590.820312 557706.250000 254 254 254
233315.484375 19592.365234 557750.187500 255 254 255
233606.750000 19567.042969 557029.312500 255 255 255
233901.546875 19542.142578 556320.437500 255 255 255
234388.875000 19533.412109 556071.937500 255 254 255
234896.734375 19526.435547 555873.312500 255 254 255
235318.828125 19512.380859 555473.187500 255 255 255
235775.750000 19501.275391 555157.062500 255 255 255
236151.468750 19483.529297 554651.875000 255 255 255
236576.703125 19469.943359 554265.125000 255 255 255
236983.125000 19454.882812 553836.375000 255 255 255
237310.093750 19433.390625 553224.562500 255 255 255
237704.609375 19417.521484 552772.812500 255 255 255
238045.781250 19397.384766 552199.562500 255 255 255
238467.953125 19383.931641 551816.500000 255 255 255
238921.953125 19373.123047 551508.875000 255 255 255
239340.453125 19359.500000 551121.000000 255 255 255
239832.437500 19351.869141 550903.812500 255 255 255
240305.015625 19342.714844 550643.250000 255 255 255
240834.437500 19338.169922 550513.812500 255 255 255
241361.546875 19333.462891 550379.812500 255 255 255
241819.406250 19323.242188 550088.875000 255 255 255
242291.578125 19314.212891 549831.812500 255 255 255
242732.093750 19302.710938 549504.375000 255 255 255
243230.593750 19295.863281 549309.437500 255 255 255
243728.687500 19289.015625 549114.500000 255 255 255
244173.546875 19277.998047 548800.875000 255 255 255
244651.218750 19269.619141 548562.312500 255 255 255
245082.531250 19257.636719 548221.187500 255 255 255
245555.312500 19248.960938 547974.187500 255 255 255
246030.343750 19240.501953 547733.437500 255 255 255
246464.562500 19228.900391 547403.187500 255 255 255
246945.390625 19220.980469 547177.687500 255 255 255
247409.437500 19211.794922 546916.187500 255 255 255
247929.265625 19206.972656 546778.937500 255 255 255
248457.921875 19202.857422 546661.750000 255 255 255
248941.968750 19195.320312 546447.250000 255 255 255
249447.609375 19189.480469 546280.937500 255 255 255
249925.093750 19181.505859 546053.937500 255 255 255
250434.515625 19176.013672 545897.625000 255 255 255
250947.312500 19170.804688 545749.312500 255 255 255
251434.328125 19163.656250 545545.812500 255 255 255
251951.937500 19158.865234 545409.437500 255 255 255
252443.468750 19152.119141 545217.375000 255 255 255
252959.703125 19147.273438 545079.437500 255 255 255
253479.046875 19142.683594 544948.750000 255 255 255
253977.500000 19136.542969 544773.937500 255 255 255
254503.734375 19132.517578 544659.312500 255 255 255
255006.703125 19126.763672 544495.562500 255 255 255
255530.125000 19122.568359 544376.125000 255 255 255
256055.968750 19118.572266 544262.375000 255 255 255
256563.765625 19113.250000 544110.875000 255 255 255
257095.781250 19109.753906 544011.312500 255 255 255
257609.734375 19104.931641 543874.062500 255 255 255
258142.437500 19101.517578 543776.875000 255 255 255
258678.687500 19098.382812 543687.625000 255 255 255
259202.265625 19094.328125 543572.187500 255 255 255
259746.437500 19091.804688 543500.312500 255 255 255
260266.578125 19087.531250 543378.687500 255 255 255
260794.750000 19083.861328 543274.250000 255 255 255
261322.203125 19080.158203 543168.812500 255 255 255
261841.671875 19075.888672 543047.250000 255 255 255
262384.781250 19073.355469 542975.187500 255 255 255
262901.875000 19068.947266 542849.687500 255 255 255
263423.375000 19064.876953 542733.812500 255 255 255
263948.093750 19061.058594 542625.062500 255 255 255
264472.312500 19057.220703 542515.812500 255 255 255
265024.562500 19055.412109 542464.375000 255 255 255
265562.343750 19052.578125 542383.625000 255 255 255
266108.250000 19050.332031 542319.750000 255 255 255
266654.406250 19048.117188 542256.625000 255 255 255
267189.593750 19045.128906 542171.625000 255 255 255
267738.187500 19043.109375 542114.062500 255 255 255
268276.625000 19040.375000 542036.312500 255 255 255
268825.093750 19038.363281 541979.000000 255 255 255
269378.343750 19036.701172 541931.687500 255 255 255
269927.500000 19034.751953 541876.187500 255 255 255
270489.406250 19033.712891 541846.625000 255 255 255
271052.343750 19032.748047 541819.125000 255 255 255
271631.625000 19032.933594 541824.437500 255 255 255
272202.906250 19032.558594 541813.750000 255 255 255
272746.687500 19030.265625 541748.500000 255 255 255
273284.187500 19027.546875 541671.125000 255 255 255
273794.218750 19022.929688 541539.625000 255 255 255
274318.656250 19019.332031 541437.250000 255 255 255
274831.687500 19014.958984 541312.750000 255 255 255
275318.062500 19008.763672 541136.375000 255 255 255
275825.843750 19004.070312 541002.750000 255 255 255
276301.187500 18997.166016 540806.187500 255 255 255
276802.343750 18992.060547 540660.875000 255 255 255
277302.625000 18986.916016 540514.437500 255 255 255
277775.781250 18979.941406 540315.875000 255 255 255
278280.812500 18975.166016 540179.937500 255 255 255
278761.812500 18968.779297 539998.125000 255 255 255
279275.062500 18964.605469 539879.312500 255 255 255
279789.625000 18960.539062 539763.500000 255 255 255
280272.062500 18954.316406 539586.375000 255 255 255
280778.687500 18949.751953 539456.437500 255 255 255
281262.406250 18943.664062 539283.125000 255 255 255
281775.718750 18939.587891 539167.062500 255 255 255
282293.125000 18935.804688 539059.375000 255 255 255
282790.781250 18930.712891 538914.437500 255 255 255
283315.000000 18927.417969 538820.625000 255 255 255
283799.062500 18921.458984 538651.000000 255 255 255
284283.812500 18915.568359 538483.312500 255 255 255
284778.187500 18910.341797 538334.500000 255 255 255
285285.687500 18906.005859 538211.125000 255 255 255
285839.562500 18904.755859 538175.500000 255 255 255
286381.281250 18902.705078 538117.125000 255 255 255
286923.375000 18900.689453 538059.750000 255 255 255
287474.250000 18899.259766 538019.000000 255 255 255
288021.437500 18897.591797 537971.562500 255 255 255
288581.156250 18896.753906 537947.687500 255 255 255
289191.343750 18899.214844 538017.750000 255 255 255
289802.468750 18901.728516 538089.312500 255 255 255
290484.562500 18908.851562 538292.062500 255 255 255
291292.625000 18924.130859 538727.062500 254 255 254
292105.062500 18939.632812 539168.312500 253 255 252
292881.531250 18952.746094 539541.625000 254 255 253
293418.125000 18950.316406 539472.500000 255 254 255
294024.375000 18952.384766 539531.437500 255 254 255
294847.968750 18968.429688 539988.125000 255 255 255
295713.968750 18987.134766 540520.625000 255 255 255
297339.156250 19054.417969 542436.062500 251 254 249
298969.312500 19121.755859 544353.000000 249 254 248
301162.406250 19224.771484 547285.625000 246 252 248
301109.437500 19184.289062 546133.187500 224 234 228
299631.375000 19053.339844 542405.375000 231 239 234
315714.812500 20037.470703 570421.312500 251 254 251
346094.687500 21923.433594 624110.437500 215 220 214
392140.281250 24792.619141 705789.625000 155 160 153
468736.343750 25443.873047 724329.312500 138 150 126
469796.000000 25459.521484 724774.812500 140 153 130
470935.906250 25479.462891 725342.500000 139 153 130
472005.125000 25495.521484 725799.625000 144 158 135
472918.593750 25503.125000 726016.062500 137 151 127
473762.062500 25506.937500 726124.625000 130 145 123
474453.000000 25502.539062 725999.375000 130 146 127
475059.718750 25493.632812 725745.875000 130 148 129
475619.250000 25482.228516 725421.250000 128 146 126
476241.093750 25474.195312 725192.500000 127 145 124
477037.812500 25475.525391 725230.437500 129 148 123
477973.187500 25484.246094 725478.687500 136 156 128
478961.906250 25495.777344 725806.937500 141 162 130
479981.562500 25508.914062 726180.937500 144 166 131
480835.593750 25513.222656 726303.562500 149 169 135
481008.093750 25481.412109 725397.937500 157 173 141
480883.468750 25433.988281 724047.937500 165 180 149
482241.562500 25465.013672 724931.125000 177 190 161
481546.937500 25387.716797 722730.687500 198 209 182
486826.062500 25625.107422 729488.687500 213 221 198
500469.937500 26301.335938 748739.375000 188 198 176
516482.437500 27099.697266 771466.875000 143 154 134
752621.125000 66641.078125 1841333.250000 170 165 160
434558.250000 38378.171875 1060412.000000 219 214 208
302253.656250 26624.500000 735651.000000 253 250 247
242115.593750 21272.041016 587759.312500 255 255 251
218694.203125 19164.744141 529533.500000 253 252 251
225036.562500 19669.853516 543489.937500 255 255 255
230373.703125 20084.736328 554953.375000 255 255 255
231307.875000 20114.611328 555778.875000 255 255 255
232570.640625 20172.837891 557387.687500 254 254 254
233226.359375 20178.246094 557537.125000 254 254 254
233563.937500 20156.171875 556927.187500 255 255 255
233895.781250 20133.714844 556306.750000 255 255 255
234390.421875 20125.351562 556075.625000 255 254 255
234890.421875 20117.488281 555858.312500 255 254 255
235305.906250 20102.445312 555442.687500 255 254 255
235753.500000 20090.210938 555104.687500 255 254 255
236124.453125 20071.527344 554588.375000 255 254 255
236551.984375 20057.730469 554207.187500 255 255 255
236964.812500 20042.761719 553793.625000 255 255 255
237299.437500 20021.267578 553199.687500 255 255 255
237700.578125 20005.478516 552763.437500 255 255 255
238044.859375 19984.992188 552197.375000 255 255 255
238463.687500 19970.851562 551806.687500 255 255 255
238913.093750 19959.333984 551488.437500 255 255 255
239331.968750 19945.328125 551101.500000 255 255 255
239827.015625 19937.724609 550891.375000 255 255 255
240302.046875 19928.496094 550636.375000 255 255 255
240831.843750 19923.845703 550507.875000 255 255 255
241358.421875 19918.951172 550372.687500 255 255 255
241815.734375 19908.378906 550080.500000 255 255 255
242287.171875 19899.017578 549821.812500 255 255 255
242726.875000 19887.099609 549492.562500 255 255 255
243224.546875 19879.978516 549295.812500 255 255 255
243722.109375 19872.880859 549099.687500 255 255 255
244166.796875 19861.517578 548785.750000 255 255 255
244644.703125 19852.904297 548547.750000 255 255 255
245077.250000 19840.658203 548209.375000 255 255 255
245551.765625 19831.861328 547966.312500 255 255 255
246028.625000 19823.294922 547729.625000 255 255 255
246464.125000 19811.445312 547402.187500 255 255 255
246945.359375 19803.316406 547177.625000 255 255 255
247409.765625 19793.882812 546916.937500 255 255 255
247929.875000 19788.937500 546780.312500 255 255 255
248458.359375 19784.683594 546662.750000 255 255 255
248942.078125 19776.890625 546447.437500 255 255 255
249447.265625 19770.837891 546280.187500 255 255 255
249923.671875 19762.537109 546050.812500 255 255 255
250431.953125 19756.789062 545892.000000 255 255 255
250943.578125 19751.330078 545741.187500 255 255 255
251429.593750 19743.886719 545535.500000 255 255 255
251946.921875 19738.929688 545398.562500 255 255 255
252438.125000 19731.955078 545205.812500 255 255 255
252953.984375 19726.933594 545067.062500 255 255 255
253473.312500 19722.207031 544936.437500 255 255 255
253971.906250 19715.890625 544761.937500 255 255 255
254498.437500 19711.765625 544648.000000 255 255 255
255002.281250 19705.908203 544486.125000 255 255 255
255526.578125 19701.654297 544368.562500 255 255 255
256053.468750 19697.619141 544257.062500 255 255 255
256562.218750 19692.208984 544107.625000 255 255 255
257094.703125 19688.640625 544009.062500 255 255 255
257609.609375 19683.746094 543873.812500 255 255 255
258143.312500 19680.306641 543778.750000 255 255 255
258680.609375 19677.154297 543691.687500 255 255 255
259205.343750 19673.064453 543578.625000 255 255 255
259750.093750 19670.507812 543508.000000 255 255 255
260271.437500 19666.193359 543388.812500 255 255 255
260800.703125 19662.496094 543286.687500 255 255 255
261329.296875 19658.765625 543183.562500 255 255 255
261849.875000 19654.447266 543064.250000 255 255 255
262393.593750 19651.884766 542993.437500 255 255 255
262911.562500 19647.404297 542869.625000 255 255 255
263433.687500 19643.257812 542755.125000 255 255 255
263959.000000 19639.365234 542647.500000 255 255 255
264483.812500 19635.451172 542539.375000 255 255 255
265036.250000 19633.603516 542488.312500 255 255 255
265574.218750 19630.691406 542407.875000 255 255 255
266120.062500 19628.373047 542343.812500 255 255 255
266665.968750 19626.072266 542280.187500 255 255 255
267200.906250 19622.972656 542194.562500 255 255 255
267749.218750 19620.869141 542136.437500 255 255 255
268287.031250 19618.003906 542057.312500 255 255 255
268834.968750 19615.890625 541998.875000 255 255 255
269387.250000 19614.103516 541949.562500 255 255 255
269934.531250 19611.962891 541890.375000 255 255 255
270494.750000 19610.765625 541857.312500 255 255 255
271055.031250 19609.580078 541824.500000 255 255 255
271632.312500 19609.626953 541825.812500 255 255 255
272201.281250 19609.072266 541810.500000 255 255 255
272741.843750 19606.478516 541738.875000 255 255 255
273277.062500 19603.515625 541656.937500 255 255 255
273783.812500 19598.523438 541519.062500 255 255 255
274305.750000 19594.638672 541411.750000 255 255 255
274816.562500 19589.978516 541282.937500 255 255 255
275300.343750 19583.416016 541101.562500 255 255 255
275806.718750 19578.480469 540965.187500 255 255 255
276280.218750 19571.238281 540765.125000 255 255 255
276780.156250 19565.894531 540617.500000 255 255 255
277279.531250 19560.537109 540469.437500 255 255 255
277752.031250 19553.306641 540269.687500 255 255 255
278256.906250 19548.378906 540133.562500 255 255 255
278736.468750 19541.699219 539949.000000 255 255 255
279248.062500 19537.289062 539827.125000 255 255 255
279760.000000 19532.919922 539706.375000 255 255 255
280239.000000 19526.273438 539522.750000 255 255 255
280742.875000 19521.384766 539387.625000 255 255 255
281221.937500 19514.791016 539205.500000 255 255 255
281731.656250 19510.351562 539082.812500 255 255 255
282244.343750 19506.132812 538966.250000 255 255 255
282734.125000 19500.351562 538806.500000 255 255 255
283251.593750 19496.500000 538700.062500 255 255 255
283727.906250 19489.835938 538515.937500 255 255 255
284208.218750 19483.474609 538340.125000 255 255 255
284699.187500 19477.867188 538185.187500 255 255 255
285201.406250 19473.048828 538052.062500 255 255 255
285751.750000 19471.529297 538010.125000 255 255 255
286288.531250 19469.095703 537942.875000 255 255 255
286825.750000 19466.701172 537876.687500 255 255 255
287373.906250 19465.056641 537831.250000 255 255 255
287921.656250 19463.390625 537785.250000 255 255 255
288484.718750 19462.763672 537767.937500 255 255 255
289099.562500 19465.626953 537847.000000 255 255 255
289710.937500 19468.246094 537919.375000 255 255 255
290398.000000 19475.927734 538131.687500 255 255 255
291226.406250 19493.042969 538604.562500 255 255 254
292062.531250 19510.605469 539089.812500 254 255 254
292842.468750 19524.355469 539469.750000 254 255 255
293344.125000 19519.531250 539336.437500 255 254 255
293926.750000 19520.103516 539352.250000 255 253 255
294785.906250 19539.005859 539874.500000 254 254 255
295717.250000 19562.605469 540526.625000 255 255 254
297394.625000 19635.373047 542537.187500 254 255 252
298963.625000 19700.714844 544342.687500 251 255 251
301187.406250 19808.871094 547331.062500 249 255 251
300920.281250 19753.099609 545790.062500 241 248 244
299144.125000 19598.677734 541523.312500 249 253 250
317987.687500 20793.171875 574527.875000 251 254 250
356587.656250 23272.466797 643032.312500 208 213 207
413488.156250 26934.349609 744212.312500 149 153 147
472870.218750 26489.505859 731921.062500 140 151 121
471868.937500 26389.943359 729170.062500 133 144 114
472250.218750 26367.902344 728561.062500 131 142 114
472812.937500 26356.048828 728233.562500 134 144 118
474811.875000 26380.988281 728922.625000 133 145 120
475610.500000 26382.255859 728957.687500 134 146 123
476275.000000 26376.091797 728787.375000 133 146 126
476798.625000 26362.160156 728402.375000 141 155 136
477253.625000 26344.484375 727914.000000 148 163 144
477775.593750 26330.556641 727529.187500 139 154 135
478508.187500 26328.263672 727465.812500 128 144 124
479441.156250 26336.984375 727706.750000 131 150 127
480357.000000 26344.736328 727921.000000 153 173 145
481248.781250 26351.148438 728098.125000 166 187 156
481990.062500 26349.310547 728047.375000 169 189 156
482064.062500 26311.060547 726990.500000 165 181 147
481901.437500 26260.035156 725580.625000 161 176 142
483402.406250 26299.683594 726676.125000 172 184 152
481700.781250 26165.246094 722961.562500 196 204 175
488056.187500 26468.185547 731331.937500 204 211 186
509181.031250 27569.857422 761771.812500 173 180 157
1043692.875000 95131.671875 2553458.000000 158 152 147
534966.437500 48635.074219 1305428.750000 208 203 197
328393.562500 29777.708984 799272.562500 250 249 245
244687.828125 22130.208984 594003.687500 255 255 253
216576.468750 19537.267578 524405.750000 253 252 250
224044.593750 20159.015625 541094.250000 255 255 255
230311.140625 20669.736328 554802.687500 255 255 255
231208.359375 20697.197266 555539.750000 255 255 255
232488.656250 20758.722656 557191.187500 255 255 255
233205.484375 20769.751953 557487.187500 255 255 255
233629.937500 20754.751953 557084.562500 255 255 255
234001.171875 20735.109375 556557.375000 255 255 255
234455.578125 20722.919922 556230.187500 255 254 255
234891.828125 20709.191406 555861.687500 255 254 255
235277.281250 20691.064453 555375.125000 255 254 255
235723.250000 20678.335938 555033.500000 255 254 255
236095.203125 20659.195312 554519.687500 255 254 255
236525.421875 20645.234375 554145.000000 255 255 255
236944.640625 20630.384766 553746.437500 255 255 255
237285.656250 20608.818359 553167.562500 255 255 255
237691.687500 20592.990234 552742.750000 255 255 255
238038.750000 20572.146484 552183.250000 255 255 255
238456.046875 20557.458984 551789.000000 255 255 255
238903.062500 20545.398438 551465.312500 255 255 255
239322.968750 20531.072266 551080.750000 255 255 255
239820.703125 20523.476562 550876.875000 255 255 255
240297.562500 20514.134766 550626.125000 255 255 255
240827.328125 20509.345703 550497.562500 255 255 255
241352.984375 20504.230469 550360.250000 255 255 255
241809.375000 20493.269531 550066.062500 255 255 255
242280.109375 20483.572266 549805.812500 255 255 255
242718.906250 20471.230469 549474.500000 255 255 255
243216.140625 20463.863281 549276.812500 255 255 255
243713.546875 20456.548828 549080.437500 255 255 255
244158.234375 20444.851562 548766.500000 255 255 255
244636.265625 20435.998047 548528.812500 255 255 255
245069.937500 20423.488281 548193.062500 255 255 255
245545.890625 20414.552734 547953.187500 255 255 255
246024.343750 20405.867188 547720.062500 255 255 255
246461.234375 20393.785156 547395.750000 255 255 255
246942.968750 20385.458984 547172.312500 255 255 255
247407.796875 20375.783203 546912.562500 255 255 255
247927.968750 20370.697266 546776.062500 255 255 255
248456.281250 20366.304688 546658.125000 255 255 255
248939.750000 20358.263672 546442.312500 255 255 255
249444.609375 20352.005859 546274.375000 255 255 255
249920.390625 20343.410156 546043.625000 255 255 255
250427.812500 20337.423828 545883.000000 255 255 255
250938.593750 20331.738281 545730.375000 255 255 255
251424.000000 20324.027344 545523.375000 255 255 255
251941.078125 20318.906250 545385.937500 255 255 255
252432.109375 20311.712891 545192.812500 255 255 255
252947.859375 20306.535156 545053.875000 255 255 255
253467.265625 20301.675781 544923.437500 255 255 255
253966.140625 20295.197266 544749.562500 255 255 255
254492.984375 20290.978516 544636.312500 255 255 255
254997.531250 20285.005859 544476.000000 255 255 255
255522.609375 20280.689453 544360.125000 255 255 255
256050.312500 20276.599609 544250.375000 255 255 255
256559.921875 20271.099609 544102.750000 255 255 255
257092.843750 20267.462891 544005.125000 255 255 255
257608.734375 20262.500000 543871.937500 255 255 255
258143.281250 20259.025391 543778.687500 255 255 255
258681.468750 20255.851562 543693.437500 255 255 255
259207.218750 20251.720703 543582.562500 255 255 255
259752.500000 20249.128906 543513.062500 255 255 255
260274.937500 20244.773438 543396.125000 255 255 255
260805.218750 20241.044922 543296.062500 255 255 255
261334.812500 20237.281250 543195.000000 255 255 255
261856.406250 20232.916016 543077.812500 255 255 255
262400.750000 20230.322266 543008.250000 255 255 255
262919.406250 20225.763672 542885.875000 255 255 255
263442.187500 20221.542969 542772.562500 255 255 255
263967.906250 20217.566406 542665.812500 255 255 255
264493.281250 20213.578125 542558.812500 255 255 255
265045.906250 20211.689453 542508.062500 255 255 255
265584.125000 20208.708984 542428.062500 255 255 255
266130.125000 20206.332031 542364.312500 255 255 255
266675.968750 20203.955078 542300.500000 255 255 255
267210.812500 20200.759766 542214.687500 255 255 255
267759.031250 20198.583984 542156.312500 255 255 255
268296.375000 20195.597656 542076.187500 255 255 255
268844.062500 20193.402344 542017.250000 255 255 255
269395.718750 20191.515625 541966.625000 255 255 255
269941.812500 20189.218750 541904.937500 255 255 255
270500.875000 20187.900391 541869.562500 255 255 255
271059.250000 20186.537109 541832.937500 255 255 255
271635.093750 20186.474609 541831.312500 255 255 255
272202.500000 20185.791016 541812.937500 255 255 255
272740.718750 20182.947266 541736.625000 255 255 255
273274.250000 20179.771484 541651.375000 255 255 255
273778.812500 20174.474609 541509.187500 255 255 255
274299.093750 20170.355469 541398.625000 255 255 255
274808.593750 20165.458984 541267.187500 255 255 255
275290.812500 20158.587891 541082.812500 255 255 255
275796.312500 20153.449219 540944.812500 255 255 255
276268.843750 20145.925781 540742.875000 255 255 255
276768.125000 20140.378906 540594.000000 255 255 255
277267.156250 20134.837891 540445.312500 255 255 255
277739.281250 20127.369141 540244.875000 255 255 255
278244.281250 20122.310547 540109.062500 255 255 255
278723.156250 20115.384766 539923.187500 255 255 255
279233.718750 20110.771484 539799.375000 255 255 255
279744.000000 20106.158203 539675.500000 255 255 255
280220.625000 20099.146484 539487.312500 255 255 255
280722.437500 20093.970703 539348.375000 255 255 255
281198.000000 20086.937500 539159.562500 255 255 255
281705.281250 20082.195312 539032.312500 255 255 255
282214.531250 20077.611328 538909.312500 255 255 255
282698.406250 20071.246094 538738.437500 255 255 255
283210.781250 20066.925781 538622.437500 255 255 255
283681.250000 20059.658203 538427.375000 255 255 255
284158.437500 20052.894531 538245.812500 255 255 255
284646.718750 20046.939453 538086.000000 255 255 255
285144.875000 20041.703125 537945.437500 255 255 255
285692.281250 20039.943359 537898.187500 255 255 255
286224.687500 20037.138672 537822.875000 255 255 255
286757.593750 20034.378906 537748.875000 255 255 255
287302.875000 20032.494141 537698.312500 255 255 255
287849.593750 20030.718750 537650.562500 255 255 255
288414.000000 20030.177734 537636.062500 255 255 255
289030.437500 20033.244141 537718.375000 255 255 255
289640.281250 20035.843750 537788.125000 255 255 255
290329.531250 20043.914062 538004.750000 255 255 255
291171.750000 20062.492188 538503.437500 254 255 255
292024.937500 20081.753906 539020.437500 253 255 254
292807.750000 20096.109375 539405.750000 253 255 255
293281.500000 20089.236328 539221.312500 255 255 255
293849.437500 20088.832031 539210.437500 255 254 255
294748.687500 20111.033203 539806.312500 254 254 255
295745.312500 20139.779297 540577.937500 254 254 254
297477.312500 20218.394531 542688.062500 255 255 253
299011.718750 20283.302734 544430.250000 252 254 251
301257.531250 20396.121094 547458.500000 246 251 247
300820.718750 20327.236328 545609.500000 246 251 249
298807.593750 20152.302734 540914.062500 255 255 255
319664.906250 21517.515625 577558.125000 253 255 253
364649.718750 24498.457031 657570.562500 211 215 210
430567.906250 28871.666016 774953.125000 150 153 148
477235.375000 27520.181641 738677.562500 136 146 119
471475.531250 27143.322266 728562.125000 138 148 120
475591.531250 27201.345703 730119.562500 137 147 123
476610.468750 27215.158203 730490.312500 138 148 126
477253.843750 27207.515625 730285.187500 137 149 128
477741.375000 27191.027344 729842.625000 136 149 130
478173.968750 27171.472656 729317.750000 147 160 142
478648.125000 27154.337891 728857.812500 157 170 153
479330.687500 27149.062500 728716.250000 144 158 139
480228.625000 27155.982422 728902.000000 149 164 142
481021.875000 27156.970703 728928.500000 178 196 170
481683.406250 27150.533203 728755.687500 176 195 166
482308.500000 27142.064453 728528.375000 162 180 149
482620.812500 27116.048828 727830.125000 163 178 147
482884.125000 27087.367188 727060.250000 164 176 146
484427.343750 27130.460938 728216.937500 166 175 146
481005.906250 26895.812500 721918.687500 167 172 147
487511.468750 27216.103516 730515.687500 159 164 141
515421.187500 28728.392578 771107.500000 143 148 127
1489203.625000 139617.125000 3643427.250000 140 135 128
653409.750000 61099.957031 1594455.000000 198 193 187
353399.750000 32960.601562 860134.750000 249 247 243
247710.265625 23043.550781 601340.937500 255 255 254
215611.093750 20005.798828 522068.250000 254 254 250
223621.734375 20695.746094 540073.000000 255 255 254
230311.140625 21260.191406 554802.687500 254 254 254
231116.187500 21279.949219 555318.250000 254 255 255
232437.015625 21346.976562 557067.437500 255 255 255
233184.125000 21361.107422 557436.125000 255 255 255
233676.734375 21351.910156 557196.125000 255 255 255
234079.734375 21334.591797 556744.250000 255 255 255
234504.671875 21319.357422 556346.625000 255 255 255
234893.046875 21300.882812 555864.562500 255 255 255
235251.515625 21279.796875 555314.312500 255 255 255
235690.562500 21266.085938 554956.500000 255 255 255
236059.531250 21246.136719 554435.937500 255 255 255
236492.187500 21232.005859 554067.125000 255 255 255
236918.656250 21217.388672 553685.687500 255 255 255
237266.625000 21195.833984 553123.187500 255 255 255
237678.046875 21180.039062 552711.000000 255 255 255
238029.187500 21158.962891 552161.062500 255 255 255
238446.140625 21143.828125 551766.062500 255 255 255
238891.953125 21131.318359 551439.625000 255 255 255
239313.703125 21116.750000 551059.437500 255 255 255
239814.156250 21109.175781 550861.812500 255 255 255
240292.781250 21099.726562 550615.187500 255 255 255
240822.328125 21094.781250 550486.187500 255 255 255
241346.890625 21089.423828 550346.375000 255 255 255
241802.765625 21078.107422 550051.000000 255 255 255
242273.140625 21068.103516 549790.000000 255 255 255
242711.390625 21055.363281 549457.500000 255 255 255
243208.015625 21047.734375 549258.437500 255 255 255
243705.031250 21040.177734 549061.187500 255 255 255
244149.312500 21028.113281 548746.437500 255 255 255
244627.375000 21019.011719 548508.875000 255 255 255
245061.812500 21006.210938 548174.812500 255 255 255
245539.062500 20997.132812 547937.937500 255 255 255
246019.046875 20988.333984 547708.312500 255 255 255
246457.281250 20976.019531 547387.000000 255 255 255
246939.625000 20967.511719 547164.937500 255 255 255
247404.859375 20957.591797 546906.062500 255 255 255
247925.109375 20952.369141 546769.812500 255 255 255
248453.140625 20947.826172 546651.250000 255 255 255
248936.406250 20939.539062 546435.000000 255 255 255
249441.171875 20933.095703 546266.812500 255 255 255
249916.281250 20924.199219 546034.687500 255 255 255
250422.859375 20917.972656 545872.187500 255 255 255
250932.796875 20912.054688 545717.750000 255 255 255
251417.593750 20904.074219 545509.500000 255 255 255
251934.421875 20898.787109 545371.500000 255 255 255
252425.250000 20891.373047 545178.000000 255 255 255
252940.984375 20886.046875 545039.062500 255 255 255
253460.500000 20881.060547 544908.937500 255 255 255
253959.625000 20874.417969 544735.562500 255 255 255
254486.687500 20870.097656 544622.875000 255 255 255
254992.015625 20864.019531 544464.187500 255 255 255
255517.796875 20859.636719 544349.875000 255 255 255
256046.390625 20855.505859 544242.062500 255 255 255
256556.781250 20849.912109 544096.062500 255 255 255
257090.125000 20846.205078 543999.375000 255 255 255
257606.953125 20841.177734 543868.187500 255 255 255
258142.281250 20837.667969 543776.562500 255 255 255
258681.343750 20834.474609 543693.250000 255 255 255
259208.109375 20830.306641 543584.437500 255 255 255
259754.000000 20827.689453 543516.187500 255 255 255
260277.546875 20823.298828 543401.562500 255 255 255
260808.921875 20819.550781 543303.750000 255 255 255
261339.562500 20815.759766 543204.875000 255 255 255
261862.250000 20811.355469 543089.937500 255 255 255
262407.187500 20808.734375 543021.562500 255 255 255
262926.656250 20804.109375 542900.875000 255 255 255
263450.062500 20799.816406 542788.812500 255 255 255
263976.312500 20795.765625 542683.062500 255 255 255
264502.250000 20791.708984 542577.250000 255 255 255
265055.218750 20789.787109 542527.125000 255 255 255
265593.687500 20786.742188 542447.625000 255 255 255
266139.781250 20784.304688 542384.000000 255 255 255
266685.718750 20781.865234 542320.375000 255 255 255
267220.593750 20778.576172 542234.562500 255 255 255
267768.687500 20776.328125 542175.875000 255 255 255
268305.656250 20773.226562 542094.937500 255 255 255
268853.093750 20770.949219 542035.500000 255 255 255
269404.218750 20768.964844 541983.687500 255 255 255
269949.125000 20766.509766 541919.687500 255 255 255
270507.187500 20765.074219 541882.187500 255 255 255
271063.718750 20763.531250 541841.937500 255 255 255
271638.218750 20763.367188 541837.625000 255 255 255
272204.093750 20762.542969 541816.125000 255 255 255
272740.312500 20759.466797 541735.812500 255 255 255
273272.406250 20756.089844 541647.750000 255 255 255
273774.906250 20750.484375 541501.437500 255 255 255
274293.781250 20746.140625 541388.125000 255 255 255
274802.125000 20741.021484 541254.500000 255 255 255
275283.093750 20733.861328 541067.625000 255 255 255
275788.000000 20728.531250 540928.562500 255 255 255
276259.937500 20720.748047 540725.437500 255 255 255
276758.937500 20715.025391 540576.062500 255 255 255
277257.968750 20709.326172 540427.375000 255 255 255
277730.406250 20701.669922 540227.562500 255 255 255
278235.812500 20696.498047 540092.625000 255 255 255
278714.375000 20689.355469 539906.187500 255 255 255
279224.500000 20684.576172 539781.562500 255 255 255
279733.593750 20679.744141 539655.437500 255 255 255
280208.437500 20672.406250 539463.875000 255 255 255
280708.718750 20666.966797 539322.000000 255 255 255
281181.343750 20659.521484 539127.687500 255 255 255
281686.281250 20654.474609 538996.000000 255 255 255
282192.406250 20649.533203 538867.062500 255 255 255
282670.875000 20642.593750 538685.937500 255 255 255
283178.500000 20637.806641 538561.062500 255 255 255
283643.812500 20629.962891 538356.312500 255 255 255
284118.531250 20622.832031 538170.250000 255 255 255
284604.843750 20616.570312 538006.812500 255 255 255
285099.187500 20610.914062 537859.250000 255 255 255
285643.625000 20608.896484 537806.562500 255 255 255
286171.343750 20605.681641 537722.687500 255 255 255
286699.843750 20602.535156 537640.562500 255 255 255
287242.000000 20600.382812 537584.375000 255 255 255
287787.562500 20598.478516 537534.750000 255 255 255
288353.375000 20598.031250 537523.062500 255 255 255
288970.906250 20601.273438 537607.687500 255 255 255
289578.156250 20603.769531 537672.812500 255 255 255
290269.125000 20612.203125 537892.875000 255 255 255
291126.312500 20632.382812 538419.437500 254 255 255
291998.750000 20653.558594 538972.062500 252 254 253
292787.281250 20668.732422 539368.062500 253 255 254
293236.468750 20659.937500 539138.500000 255 255 255
293791.000000 20658.582031 539103.187500 255 254 255
294723.250000 20683.742188 539759.750000 255 254 255
295774.250000 20717.123047 540630.812500 254 254 254
297566.781250 20802.208984 542851.250000 255 255 253
299023.062500 20863.507812 544450.875000 254 254 250
301357.843750 20985.746094 547640.812500 244 247 246
301187.968750 20933.431641 546275.562500 241 245 246
299468.031250 20773.791016 542109.625000 254 255 255
322343.156250 22317.619141 582397.125000 255 255 255
372824.718750 25763.199219 672312.500000 208 210 206
446508.312500 30795.833984 803643.375000 136 137 131
477912.593750 28069.066406 732486.062500 133 143 124
478508.406250 28058.292969 732204.875000 132 144 125
478879.125000 28034.375000 731580.750000 130 143 125
479177.906250 28006.332031 730848.937500 132 145 127
479557.500000 27983.095703 730242.562500 138 151 132
480112.093750 27970.128906 729904.187500 141 155 134
480940.531250 27973.130859 729982.500000 142 156 133
481637.750000 27968.505859 729861.812500 139 154 128
482114.531250 27951.113281 729407.937500 137 153 126
482749.156250 27942.914062 729193.937500 139 153 128
483421.843750 27936.941406 729038.125000 141 154 130
484192.187500 27936.621094 729029.750000 141 152 129
486487.000000 28024.121094 731313.125000 149 157 135
482534.250000 27752.021484 724212.500000 155 159 141
490275.062500 28152.251953 734656.812500 136 138 123
842666.937500 80985.703125 2056281.625000 188 183 176
383240.062500 36736.425781 932762.687500 244 241 237
251049.718750 24002.818359 609447.812500 255 255 254
214782.734375 20482.419922 520062.500000 253 254 250
223290.062500 21238.976562 539272.000000 255 255 254
230354.671875 21854.777344 554907.562500 254 254 254
231053.984375 21865.068359 555168.812500 254 255 255
232400.281250 21936.375000 556979.375000 253 255 255
233111.609375 21947.537109 557262.812500 254 254 255
233601.328125 21937.832031 557016.375000 255 255 255
234017.750000 21921.306641 556596.812500 255 255 255
234472.109375 21908.414062 556269.437500 255 255 255
234888.109375 21892.007812 555852.875000 255 255 255
235245.906250 21870.273438 555301.062500 255 255 255
235663.734375 21854.216797 554893.312500 255 255 255
236018.968750 21832.449219 554340.625000 255 255 255
236453.328125 21818.091797 553976.125000 255 255 255
236888.140625 21803.845703 553614.375000 255 255 255
237244.703125 21782.488281 553072.062500 255 255 255
237663.578125 21766.943359 552677.375000 255 255 255
238020.218750 21745.787109 552140.250000 255 255 255
238436.937500 21730.212891 551744.750000 255 255 255
238881.078125 21717.207031 551414.562500 255 255 255
239304.984375 21702.429688 551039.312500 255 255 255
239808.515625 21694.927734 550848.875000 255 255 255
240289.500000 21685.427734 550607.687500 255 255 255
240819.015625 21680.343750 550478.562500 255 255 255
241342.859375 21674.773438 550337.125000 255 255 255
241798.765625 21663.146484 550041.937500 255 255 255
242269.468750 21652.894531 549781.625000 255 255 255
242707.343750 21639.769531 549448.375000 255 255 255
243202.859375 21631.830078 549246.812500 255 255 255
243698.765625 21623.964844 549047.125000 255 255 255
244142.281250 21611.500000 548730.625000 255 255 255
244620.093750 21602.125000 548492.562500 255 255 255
245055.281250 21589.037109 548160.250000 255 255 255
245533.953125 21579.833984 547926.562500 255 255 255
246015.515625 21570.927734 547700.437500 255 255 255
246455.171875 21558.398438 547382.312500 255 255 255
246938.156250 21549.708984 547161.625000 255 255 255
247403.765625 21539.546875 546903.687500 255 255 255
247923.968750 21534.175781 546767.250000 255 255 255
248451.609375 21529.472656 546647.875000 255 255 255
248934.546875 21520.927734 546430.937500 255 255 255
249439.156250 21514.292969 546262.437500 255 255 255
249913.421875 21505.078125 546028.437500 255 255 255
250418.875000 21498.580078 545863.500000 255 255 255
250927.562500 21492.392578 545706.375000 255 255 255
251411.328125 21484.101562 545495.875000 255 255 255
251927.781250 21478.638672 545357.125000 255 255 255
252418.328125 21470.994141 545163.062500 255 255 255
252933.859375 21465.505859 545023.687500 255 255 255
253453.453125 21460.388672 544893.750000 255 255 255
253952.750000 21453.578125 544720.875000 255 255 255
254480.078125 21449.162109 544608.687500 255 255 255
254986.046875 21442.968750 544451.500000 255 255 255
255512.687500 21438.539062 544339.000000 255 255 255
256042.234375 21434.373047 544233.187500 255 255 255
256553.609375 21428.707031 544089.312500 255 255 255
257087.406250 21424.935547 543993.625000 255 255 255
257605.109375 21419.841797 543864.250000 255 255 255
258141.281250 21416.304688 543774.500000 255 255 255
258681.234375 21413.095703 543693.000000 255 255 255
259209.109375 21408.904297 543586.562500 255 255 255
259755.765625 21406.279297 543519.875000 255 255 255
260280.687500 21401.876953 543408.125000 255 255 255
260813.296875 21398.126953 543312.875000 255 255 255
261345.187500 21394.332031 543216.562500 255 255 255
261869.078125 21389.902344 543104.062500 255 255 255
262414.593750 21387.255859 543036.875000 255 255 255
262935.062500 21382.580078 542918.187500 255 255 255
263459.250000 21378.230469 542807.750000 255 255 255
263986.125000 21374.115234 542703.250000 255 255 255
264512.750000 21370.000000 542598.750000 255 255 255
265066.031250 21368.050781 542549.250000 255 255 255
265604.718750 21364.937500 542470.187500 255 255 255
266151.000000 21362.445312 542406.875000 255 255 255
266696.843750 21359.927734 542343.000000 255 255 255
267231.531250 21356.531250 542256.750000 255 255 255
267779.562500 21354.210938 542197.812500 255 255 255
268315.906250 21350.974609 542115.687500 255 255 255
268862.906250 21348.593750 542055.250000 255 255 255
269413.062500 21346.478516 542001.500000 255 255 255
269956.312500 21343.822266 541934.062500 255 255 255
270512.875000 21342.228516 541893.625000 255 255 255
271067.062500 21340.453125 541848.562500 255 255 255
271639.625000 21340.132812 541840.375000 255 255 255
272203.531250 21339.132812 541815.000000 255 255 255
272736.968750 21335.753906 541729.250000 255 255 255
273267.187500 21332.136719 541637.375000 255 255 255
273767.062500 21326.171875 541485.937500 255 255 255
274283.875000 21321.548828 541368.562500 255 255 255
274790.468750 21316.154297 541231.562500 255 255 255
275269.593750 21308.654297 541041.125000 255 255 255
275773.625000 21303.109375 540900.375000 255 255 255
276244.812500 21295.054688 540695.812500 255 255 255
276743.375000 21289.140625 540545.687500 255 255 255
277242.437500 21283.291016 540397.125000 255 255 255
277715.312500 21275.457031 540198.250000 255 255 255
278221.406250 21270.195312 540064.625000 255 255 255
278699.812500 21262.845703 539878.000000 255 255 255
279209.218750 21257.882812 539752.000000 255 255 255
279716.843750 21252.806641 539623.125000 255 255 255
280189.781250 21245.121094 539428.000000 255 255 255
280688.531250 21239.419922 539283.187500 255 255 255
281157.593750 21231.500000 539082.125000 255 255 255
281659.375000 21226.078125 538944.437500 255 255 255
282161.125000 21220.675781 538807.312500 255 255 255
282632.593750 21213.023438 538613.000000 255 255 255
283134.437500 21207.675781 538477.250000 255 255 255
283593.281250 21199.136719 538260.437500 255 255 255
284065.031250 21191.595703 538068.937500 255 255 255
284548.843750 21184.980469 537901.000000 255 255 255
285038.375000 21178.820312 537744.562500 255 255 255
285578.968750 21176.468750 537684.875000 255 255 255
286101.343750 21172.779297 537591.125000 255 255 255
286624.718750 21169.177734 537499.687500 255 255 255
287163.781250 21166.746094 537438.000000 255 255 255
287709.500000 21164.814453 537388.937500 255 255 255
288278.468750 21164.595703 537383.375000 255 255 255
288899.593750 21168.203125 537475.000000 255 255 255
289504.593750 21170.615234 537536.187500 255 255 255
290199.656250 21179.589844 537764.125000 255 255 255
291080.937500 21202.095703 538335.500000 255 255 255
291982.937500 21226.015625 538942.875000 254 255 255
292780.906250 21242.298828 539356.312500 254 255 255
293199.906250 21231.072266 539071.312500 254 254 255
293730.718750 21227.972656 538992.562500 255 253 255
294680.875000 21255.130859 539682.125000 255 253 255
295772.281250 21292.353516 540627.250000 254 253 253
297636.625000 21384.964844 542978.750000 254 255 252
298993.968750 21440.861328 544397.937500 254 255 251
301494.500000 21578.359375 547889.125000 250 253 251
301860.281250 21562.837891 547495.000000 244 248 248
300740.031250 21441.425781 544412.312500 255 255 255
326221.437500 23213.414062 589404.250000 255 255 255
383549.062500 27240.378906 691651.625000 198 201 197
480694.718750 28828.466797 731974.250000 133 145 126
481014.093750 28800.945312 731275.437500 136 149 127
481751.843750 28798.525391 731214.000000 132 145 122
483744.125000 28778.158203 730696.875000 133 143 122
484554.062500 28780.076172 730745.562500 133 144 125
485404.906250 28784.414062 730855.687500 136 145 128
489023.687500 28952.613281 735126.375000 154 161 144
485879.218750 28720.496094 729232.812500 167 171 156
496680.062500 29312.117188 744254.437500 138 141 128
950216.500000 93789.632812 2318724.750000 178 174 164
396991.156250 39082.894531 966231.250000 233 228 222
252864.953125 24829.673828 613854.437500 255 253 250
214796.234375 21037.224609 520095.156250 254 255 251
223366.921875 21820.412109 539457.625000 255 255 254
230443.093750 22453.958984 555120.562500 255 255 255
231063.937500 22456.878906 555192.750000 255 255 255
232406.656250 22529.763672 556994.625000 253 254 255
233039.812500 22533.667969 557091.125000 254 254 255
233470.234375 22517.998047 556703.750000 255 255 255
233876.875000 22500.119141 556261.750000 255 255 255
234391.453125 22492.689453 556078.062500 255 255 255
234880.750000 22482.876953 555835.437500 255 255 255
235258.156250 22462.429688 555329.937500 255 255 255
235653.265625 22443.771484 554868.687500 255 255 255
235992.468750 22419.894531 554278.375000 255 255 255
236427.046875 22405.175781 553914.500000 255 255 255
236867.125000 22391.050781 553565.312500 255 255 255
237229.328125 22369.652344 553036.250000 255 255 255
237653.484375 22354.185547 552653.937500 255 255 255
238014.437500 22332.867188 552126.812500 255 255 255
238431.578125 22316.910156 551732.375000 255 255 255
238875.140625 22303.501953 551400.812500 255 255 255
239300.625000 22288.472656 551029.312500 255 255 255
239806.046875 22280.945312 550843.187500 255 255 255
240288.437500 22271.320312 550605.250000 255 255 255
240818.062500 22266.107422 550476.375000 255 255 255
241341.640625 22260.365234 550334.375000 255 255 255
241798.234375 22248.484375 550040.687500 255 255 255
242269.781250 22238.035156 549782.375000 255 255 255
242707.656250 22224.552734 549449.062500 255 255 255
243202.312500 22216.322266 549245.562500 255 255 255
243696.937500 22208.128906 549043.000000 255 255 255
244139.671875 22195.255859 548724.750000 255 255 255
244617.250000 22185.605469 548486.187500 255 255 255
245052.609375 22172.181641 548154.250000 255 255 255
245531.953125 22162.789062 547922.062500 255 255 255
246014.390625 22153.722656 547697.937500 255 255 255
246454.765625 22140.919922 547381.375000 255 255 255
246938.125000 22132.027344 547161.562500 255 255 255
247403.859375 22121.603516 546903.875000 255 255 255
247923.968750 22116.078125 546767.250000 255 255 255
248451.296875 22111.220703 546647.187500 255 255 255
248934.109375 22102.433594 546429.937500 255 255 255
249438.593750 22095.609375 546261.187500 255 255 255
249912.359375 22086.099609 546026.125000 255 255 255
250416.968750 22079.355469 545859.375000 255 255 255
250924.843750 22072.925781 545700.437500 255 255 255
251407.796875 22064.341797 545488.187500 255 255 255
251923.984375 22058.707031 545348.875000 255 255 255
252414.140625 22050.824219 545154.000000 255 255 255
252929.671875 22045.189453 545014.687500 255 255 255
253449.312500 22039.937500 544884.875000 255 255 255
253948.640625 22032.945312 544712.000000 255 255 255
254475.921875 22028.408203 544599.812500 255 255 255
254982.250000 22022.080078 544443.375000 255 255 255
255509.421875 22017.576172 544332.062500 255 255 255
256039.531250 22013.345703 544227.437500 255 255 255
256551.359375 22007.566406 544084.562500 255 255 255
257085.515625 22003.724609 543989.625000 255 255 255
257603.593750 21998.527344 543861.062500 255 255 255
258140.125000 21994.923828 543772.000000 255 255 255
258680.562500 21991.669922 543691.562500 255 255 255
259209.078125 21987.419922 543586.500000 255 255 255
259756.281250 21984.769531 543520.937500 255 255 255
260282.015625 21980.318359 543410.875000 255 255 255
260815.375000 21976.527344 543317.187500 255 255 255
261348.015625 21972.695312 543222.437500 255 255 255
261872.640625 21968.207031 543111.500000 255 255 255
262418.468750 21965.513672 543044.875000 255 255 255
262939.500000 21960.757812 542927.312500 255 255 255
263464.156250 21956.330078 542817.812500 255 255 255
263991.531250 21952.144531 542714.375000 255 255 255
264518.562500 21947.951172 542610.687500 255 255 255
265072.093750 21945.966797 542561.687500 255 255 255
265610.937500 21942.779297 542482.875000 255 255 255
266157.250000 21940.220703 542419.625000 255 255 255
266702.968750 21937.625000 542355.437500 255 255 255
267237.562500 21934.126953 542268.937500 255 255 255
267785.468750 21931.736328 542209.812500 255 255 255
268321.468750 21928.378906 542126.875000 255 255 255
268868.000000 21925.898438 542065.562500 255 255 255
269417.500000 21923.667969 542010.375000 255 255 255
269959.593750 21920.847656 541940.625000 255 255 255
270515.062500 21919.123047 541898.000000 255 255 255
271067.656250 21917.171875 541849.750000 255 255 255
271639.093750 21916.750000 541839.375000 255 255 255
272201.750000 21915.621094 541811.437500 255 255 255
272733.500000 21912.017578 541722.312500 255 255 255
273262.531250 21908.207031 541628.125000 255 255 255
273760.687500 21901.945312 541473.312500 255 255 255
274276.093750 21897.087891 541353.250000 255 255 255
274781.625000 21891.460938 541214.125000 255 255 255
275259.500000 21883.660156 541021.250000 255 255 255
275763.000000 21877.925781 540879.500000 255 255 255
276233.750000 21869.621094 540674.187500 255 255 255
276732.375000 21863.552734 540524.187500 255 255 255
277231.656250 21857.562500 540376.062500 255 255 255
277705.062500 21849.562500 540178.312500 255 255 255
278211.750000 21844.207031 540045.937500 255 255 255
278690.375000 21836.675781 539859.687500 255 255 255
279199.500000 21831.558594 539733.187500 255 255 255
279706.437500 21826.294922 539603.062500 255 255 255
280178.593750 21818.341797 539406.437500 255 255 255
280676.750000 21812.443359 539260.625000 255 255 255
281143.812500 21804.156250 539055.687500 255 255 255
281643.562500 21798.431641 538914.250000 255 255 255
282142.250000 21792.650391 538771.312500 255 255 255
282609.468750 21784.464844 538568.875000 255 255 255
283107.718750 21778.701172 538426.437500 255 255 255
283562.812500 21769.646484 538202.562500 255 255 255
284032.875000 21761.777344 538008.000000 255 255 255
284515.437500 21754.892578 537837.812500 255 255 255
285001.937500 21748.339844 537675.812500 255 255 255
