ply
		format ascii 1.0
		element vertex 67967
		property float x
		property float y
		property float z
		property uchar red
		property uchar green
		property uchar blue
		end_header
396200.625000 -141598.000000 791983.875000 255 255 254
397121.656250 -141625.859375 792139.750000 255 255 254
398053.343750 -141657.421875 792316.250000 255 255 255
398993.625000 -141691.875000 792508.937500 255 255 255
399894.906250 -141712.375000 792623.625000 255 255 255
400838.218750 -141747.656250 792820.937500 255 255 255
401760.875000 -141775.484375 792976.625000 255 255 255
402696.812500 -141807.890625 793157.875000 255 255 255
403674.187500 -141854.718750 793419.750000 255 255 255
404618.562500 -141889.765625 793615.812500 255 255 255
405621.375000 -141945.140625 793925.500000 255 255 255
406590.750000 -141988.578125 794168.500000 255 255 253
407565.343750 -142033.687500 794420.750000 255 255 253
408570.343750 -142089.156250 794731.062500 255 255 254
409516.656250 -142124.046875 794926.125000 255 255 255
410565.437500 -142194.265625 795318.937500 255 255 255
411585.312500 -142254.218750 795654.250000 255 255 255
412652.187500 -142330.140625 796078.875000 255 255 255
413813.000000 -142438.062500 796682.562500 255 255 255
414900.718750 -142520.453125 797143.312500 255 255 255
416141.968750 -142655.140625 797896.625000 255 255 255
417294.500000 -142758.921875 798477.125000 255 255 254
418489.750000 -142876.859375 799136.812500 255 255 253
419823.531250 -143041.515625 800057.750000 255 255 250
421027.562500 -143161.406250 800728.312500 255 255 248
422449.031250 -143354.593750 801808.812500 255 255 247
423754.125000 -143507.578125 802664.562500 255 255 246
425089.812500 -143670.296875 803574.625000 255 255 246
426574.812500 -143882.718750 804762.750000 255 255 248
427858.031250 -144026.375000 805566.250000 255 255 247
429399.500000 -144256.203125 806851.750000 255 255 247
430794.875000 -144436.140625 807858.125000 255 255 247
432227.500000 -144627.828125 808930.312500 255 255 245
433855.937500 -144884.140625 810363.875000 253 255 241
435248.000000 -145060.656250 811351.125000 250 254 237
436960.437500 -145343.031250 812930.500000 252 255 235
438511.406250 -145570.687500 814203.875000 232 244 212
440078.093750 -145802.656250 815501.312500 207 221 185
441835.000000 -146096.625000 817145.500000 211 226 186
443281.843750 -146287.093750 818210.875000 220 236 193
445001.343750 -146566.625000 819774.375000 220 237 193
446524.812500 -146780.625000 820971.312500 220 237 192
448004.906250 -146979.562500 822084.000000 224 242 195
449644.343750 -147229.906250 823484.187500 229 246 200
450990.562500 -147383.421875 824342.875000 230 246 202
452486.375000 -147585.171875 825471.187500 230 246 201
453787.500000 -147722.734375 826240.687500 231 247 201
455022.906250 -147838.421875 826887.750000 232 247 203
456373.656250 -147991.062500 827741.500000 234 249 206
457537.437500 -148082.609375 828253.562500 237 252 212
458846.687500 -148220.796875 829026.437500 241 253 218
460057.625000 -148326.750000 829619.062500 244 253 222
461261.906250 -148430.156250 830197.437500 246 253 226
462571.312500 -148566.937500 830962.437500 247 253 228
463736.375000 -148656.921875 831465.750000 248 254 230
465012.093750 -148781.953125 832165.125000 249 255 231
466135.781250 -148857.984375 832590.375000 249 255 231
467303.437500 -148947.734375 833092.312500 249 255 229
468737.875000 -149122.000000 834067.062500 244 255 224
470108.687500 -149275.421875 834925.125000 241 255 222
471444.250000 -149417.093750 835717.500000 241 255 223
472465.937500 -149458.921875 835951.562500 241 255 224
473395.750000 -149471.609375 836022.437500 241 255 225
474427.656250 -149516.406250 836273.000000 241 255 227
475410.906250 -149545.734375 836437.000000 239 253 225
476741.937500 -149684.140625 837211.250000 236 250 222
477977.437500 -149792.109375 837815.000000 236 250 223
479658.062500 -150038.890625 839195.375000 241 254 227
476734.531250 -148847.250000 832530.312500 241 252 224
472062.281250 -147115.046875 822841.750000 245 255 225
495790.187500 -154223.593750 862601.187500 241 247 218
530867.125000 -164829.640625 921922.750000 209 213 188
610765.187500 -189287.437500 1058719.750000 184 185 163
821322.562500 -254074.343750 1421085.000000 166 164 145
1200493.750000 -370687.531250 2073324.125000 141 138 123
1584362.375000 -594481.625000 3344957.500000 167 169 160
662264.125000 -247936.484375 1395059.000000 230 231 223
421117.375000 -157304.031250 885099.250000 253 252 247
353983.125000 -131931.609375 742336.812500 254 254 250
363194.156250 -135063.171875 759957.125000 255 255 252
370877.093750 -137613.828125 774308.812500 255 254 250
371682.375000 -137606.859375 774269.625000 254 253 248
375181.000000 -138594.890625 779828.937500 254 255 248
377036.531250 -138972.906250 781955.937500 254 255 247
378406.375000 -139170.640625 783068.562500 253 254 247
379887.156250 -139408.218750 784405.312500 253 254 248
381077.843750 -139538.531250 785138.500000 254 255 250
382230.406250 -139654.343750 785790.187500 255 255 250
383680.343750 -139878.062500 787048.937500 255 255 251
385018.093750 -140059.984375 788072.562500 255 255 252
386350.968750 -140239.359375 789081.875000 255 255 253
387403.875000 -140316.562500 789516.250000 255 255 253
388322.750000 -140344.968750 789676.062500 255 255 253
389307.906250 -140397.156250 789969.750000 255 255 253
390206.562500 -140418.000000 790087.062500 255 255 253
391150.968750 -140455.187500 790296.312500 255 255 253
392094.375000 -140491.859375 790502.562500 255 255 253
393021.312500 -140522.468750 790674.875000 255 255 253
393930.062500 -140546.468750 790809.875000 255 255 254
394783.406250 -140550.640625 790833.375000 255 255 253
395686.375000 -140572.421875 790955.937500 255 255 252
396606.031250 -140600.031250 791111.250000 255 255 253
397539.406250 -140632.375000 791293.187500 255 255 255
398481.875000 -140667.796875 791492.500000 255 255 255
399385.281250 -140689.296875 791613.562500 255 255 255
400335.000000 -140727.000000 791825.625000 255 255 255
401264.406250 -140757.406250 791996.750000 255 255 255
402207.406250 -140792.437500 792193.875000 255 255 255
403191.718750 -140841.765625 792471.437500 255 255 255
404139.031250 -140878.000000 792675.312500 255 255 255
405145.687500 -140934.718750 792994.437500 255 255 255
406117.843750 -140979.218750 793244.812500 255 255 254
407093.125000 -141024.609375 793500.250000 255 255 253
408097.218750 -141079.796875 793810.687500 255 255 254
409040.718750 -141113.828125 794002.250000 255 255 255
410085.093750 -141182.468750 794388.437500 255 255 255
411102.343750 -141241.500000 794720.625000 255 255 255
412164.093750 -141315.546875 795137.187500 255 255 255
413314.406250 -141419.578125 795722.625000 255 255 255
414391.656250 -141498.250000 796165.250000 255 255 255
415620.031250 -141628.109375 796895.875000 255 255 255
416763.718750 -141728.625000 797461.437500 255 255 255
417951.718750 -141843.765625 798109.375000 255 255 253
419277.156250 -142005.000000 799016.562500 255 255 252
420476.562500 -142122.984375 799680.375000 255 255 252
421890.875000 -142312.968750 800749.437500 255 255 250
423185.812500 -142462.015625 801588.062500 255 255 251
424517.281250 -142622.734375 802492.312500 255 255 253
426009.531250 -142836.703125 803696.312500 255 255 253
427306.250000 -142984.406250 804527.312500 255 255 252
428869.312500 -143220.453125 805855.500000 255 255 252
430280.093750 -143404.796875 806892.750000 255 255 251
431730.906250 -143601.734375 808000.875000 255 255 248
433384.531250 -143865.218750 809483.375000 254 254 243
434794.531250 -144046.921875 810505.812500 252 254 240
436540.062500 -144338.875000 812148.500000 254 255 238
438123.375000 -144576.109375 813483.375000 232 243 213
439719.343750 -144816.609375 814836.562500 197 211 176
441500.093750 -145116.875000 816526.062500 198 213 175
442952.656250 -145308.312500 817603.250000 213 228 187
444693.812500 -145593.484375 819207.875000 221 236 192
446245.406250 -145815.609375 820457.562500 224 240 196
447753.968750 -146022.812500 821623.500000 226 243 199
449417.906250 -146279.796875 823069.437500 229 245 201
450773.093750 -146435.468750 823945.375000 231 247 202
452288.718750 -146642.562500 825110.625000 231 247 202
453605.531250 -146784.515625 825909.312500 229 245 200
454863.968750 -146907.062500 826598.937500 229 245 200
456260.187500 -147073.562500 827535.750000 235 250 207
457466.281250 -147178.234375 828124.687500 242 254 217
458805.468750 -147325.250000 828951.937500 245 255 222
460013.343750 -147429.640625 829539.250000 247 254 225
461205.000000 -147528.406250 830095.000000 249 251 227
462524.593750 -147667.656250 830878.500000 251 252 230
463707.187500 -147762.718750 831413.375000 251 253 231
464972.343750 -147883.687500 832094.000000 252 255 231
466075.625000 -147952.781250 832482.875000 251 255 231
467185.750000 -148023.812500 832882.500000 249 255 229
468481.656250 -148153.312500 833611.125000 246 255 226
469705.250000 -148259.500000 834208.625000 243 255 224
471033.562500 -148398.281250 834989.500000 240 255 222
472285.687500 -148512.578125 835632.625000 237 254 220
473395.093750 -148581.656250 836021.250000 235 253 218
474288.125000 -148582.687500 836027.062500 237 254 221
474953.875000 -148512.640625 835632.937500 238 254 221
475918.562500 -148536.156250 835765.250000 235 250 218
476881.437500 -148559.015625 835893.937500 232 246 215
478430.125000 -148763.953125 837047.062500 234 247 216
477383.687500 -148162.703125 833663.937500 238 251 217
475289.593750 -147239.125000 828467.250000 246 255 223
491579.000000 -152003.406250 855274.375000 243 253 218
505951.656250 -156158.484375 878653.687500 220 227 195
556509.500000 -171445.937500 964671.250000 191 194 166
719928.562500 -221382.656250 1245649.125000 174 174 149
1032626.562500 -316955.625000 1783407.625000 163 160 140
1720941.875000 -527258.875000 2966716.250000 140 138 119
1206453.375000 -449972.531250 2547103.750000 197 198 190
598401.500000 -222686.250000 1260532.375000 255 255 252
405181.250000 -150444.921875 851604.875000 255 255 252
348425.312500 -129082.539062 730681.562500 252 251 250
360526.625000 -133268.328125 754375.500000 255 255 253
370753.750000 -136744.265625 774051.312500 255 255 251
372003.218750 -136900.921875 774938.062500 255 255 250
374726.031250 -137597.890625 778883.312500 254 254 247
376506.812500 -137946.609375 780857.312500 253 254 245
377791.906250 -138112.609375 781796.937500 253 255 245
379196.000000 -138321.296875 782978.187500 254 255 247
380367.843750 -138444.515625 783675.687500 254 255 249
381509.625000 -138556.281250 784308.375000 254 255 250
382916.187500 -138763.515625 785481.437500 254 255 250
384211.562500 -138929.640625 786421.750000 255 255 251
385513.906250 -139097.546875 787372.250000 255 255 253
386568.500000 -139175.531250 787813.687500 255 255 253
387497.718750 -139208.156250 787998.312500 255 255 253
388474.343750 -139257.625000 788278.375000 255 255 253
389358.281250 -139273.718750 788369.437500 255 255 253
390291.968750 -139307.500000 788560.687500 255 255 255
391232.375000 -139343.531250 788764.687500 255 255 254
392162.906250 -139375.906250 788947.875000 255 255 253
393079.031250 -139403.031250 789101.437500 255 255 255
393940.843750 -139410.812500 789145.500000 255 255 254
394855.875000 -139437.359375 789295.812500 255 255 253
395783.656250 -139468.296875 789470.875000 255 255 254
396724.218750 -139503.578125 789670.625000 255 255 255
397675.906250 -139542.625000 789891.625000 255 255 255
398584.031250 -139566.250000 790025.312500 255 255 255
399541.031250 -139606.859375 790255.187500 255 255 255
400476.312500 -139639.718750 790441.250000 255 255 255
401423.031250 -139676.421875 790649.000000 255 255 255
402409.062500 -139726.609375 790933.125000 255 255 255
403353.968750 -139762.359375 791135.437500 255 255 255
404358.125000 -139818.437500 791452.875000 255 255 255
405328.187500 -139862.515625 791702.437500 255 255 253
406301.125000 -139907.421875 791956.562500 255 255 252
407302.968750 -139962.046875 792265.812500 255 255 253
408244.375000 -139995.734375 792456.437500 255 255 255
409286.125000 -140063.625000 792840.750000 255 255 255
410301.875000 -140122.343750 793173.187500 255 255 255
411359.718750 -140195.171875 793585.437500 255 255 255
412501.468750 -140296.250000 794157.562500 255 255 255
413569.093750 -140371.734375 794584.875000 255 255 255
414785.062500 -140497.171875 795294.937500 255 255 255
415920.062500 -140594.734375 795847.125000 255 255 255
417099.125000 -140706.750000 796481.312500 255 255 254
418412.781250 -140863.640625 797369.312500 255 255 254
419603.531250 -140978.593750 798020.000000 255 255 254
421003.500000 -141163.234375 799065.187500 255 255 254
422281.312500 -141306.250000 799874.750000 255 255 255
423601.562500 -141462.859375 800761.312500 255 254 255
425094.937500 -141676.546875 801970.875000 255 254 255
426402.718750 -141827.640625 802826.187500 255 254 255
427980.406250 -142067.734375 804185.250000 255 255 254
429395.562500 -142253.031250 805234.062500 255 255 253
430857.406250 -142453.015625 806366.062500 255 255 250
432538.843750 -142724.656250 807903.750000 254 255 246
433976.406250 -142914.906250 808980.750000 251 253 241
435769.031250 -143221.109375 810714.000000 255 255 242
437394.718750 -143471.359375 812130.500000 233 243 215
439030.625000 -143723.937500 813560.312500 195 206 172
440849.281250 -144035.250000 815322.500000 192 206 168
442316.968750 -144230.890625 816429.937500 210 226 185
444089.187500 -144524.859375 818094.000000 223 239 195
445669.687500 -144755.421875 819399.125000 227 244 198
447209.406250 -144971.859375 820624.250000 226 244 197
448913.718750 -145240.703125 822146.062500 226 243 197
450295.843750 -145404.468750 823073.062500 227 244 198
451844.656250 -145621.312500 824300.562500 230 246 201
453176.656250 -145767.578125 825128.437500 230 247 203
454453.593750 -145895.609375 825853.187500 233 250 206
455895.125000 -146075.875000 826873.562500 239 254 213
457143.875000 -146193.796875 827541.062500 246 255 221
458527.218750 -146354.218750 828449.187500 249 255 225
459757.562500 -146465.296875 829077.937500 251 255 226
460958.406250 -146566.562500 829651.187500 253 253 229
462287.781250 -146708.234375 830453.062500 254 252 232
463469.531250 -146802.593750 830987.312500 254 254 233
464730.406250 -146921.625000 831661.062500 252 254 229
465843.500000 -146993.578125 832068.312500 248 252 225
466937.000000 -147059.062500 832439.062500 247 253 226
468141.062500 -147159.078125 833005.125000 245 255 226
469251.031250 -147229.171875 833401.937500 242 255 223
470557.187500 -147360.437500 834145.000000 239 254 221
471929.750000 -147511.984375 835002.812500 236 252 217
473165.000000 -147620.109375 835614.875000 234 251 214
474072.812500 -147625.875000 835647.500000 235 252 215
474671.593750 -147535.562500 835136.312500 235 253 214
475464.093750 -147505.687500 834967.187500 233 250 213
476240.281250 -147470.875000 834770.125000 231 246 212
477573.875000 -147608.468750 835548.937500 230 246 211
478132.875000 -147506.593750 834972.250000 231 247 209
478324.875000 -147292.078125 833758.000000 241 253 216
486934.718750 -149665.687500 847194.000000 248 255 222
484986.968750 -148791.500000 842245.625000 220 227 194
511642.250000 -156679.625000 886896.937500 188 194 162
622650.750000 -190322.515625 1077335.125000 185 187 159
826345.875000 -252120.734375 1427148.500000 187 186 159
1253881.875000 -381861.437500 2161555.750000 170 167 141
2234920.000000 -830405.312500 4729061.500000 142 143 134
988890.062500 -366605.687500 2087776.875000 222 224 214
553385.062500 -204693.421875 1165705.250000 255 255 250
395101.593750 -145818.531250 830419.625000 255 255 253
345900.125000 -127375.023438 725385.937500 253 253 253
359278.281250 -132006.812500 751763.437500 255 255 255
370654.937500 -135884.250000 773845.000000 255 255 253
372143.031250 -136127.328125 775229.312500 255 255 251
374344.468750 -136629.687500 778090.187500 254 254 247
376033.156250 -136943.093750 779875.062500 253 255 245
377238.062500 -137079.328125 780650.812500 254 255 245
378560.031250 -137257.406250 781665.000000 254 255 247
379697.031250 -137367.781250 782293.562500 254 255 249
380814.937500 -137470.796875 782880.187500 254 255 250
382173.062500 -137659.875000 783957.000000 254 255 250
383430.687500 -137812.015625 784823.437500 255 255 252
384700.968750 -137968.031250 785711.937500 255 255 253
385746.406250 -138042.921875 786138.375000 255 255 254
386678.468750 -138076.968750 786332.375000 255 255 254
387651.312500 -138125.421875 786608.250000 255 255 254
388532.750000 -138141.171875 786697.937500 255 255 254
389474.312500 -138178.171875 786908.687500 255 255 255
390425.937500 -138218.593750 787138.812500 255 255 255
391375.062500 -138257.953125 787362.937500 255 255 255
392317.531250 -138294.796875 787572.750000 255 255 255
393200.187500 -138310.421875 787661.812500 255 255 255
394140.406250 -138346.203125 787865.625000 255 255 255
395083.406250 -138382.828125 788074.125000 255 255 255
396034.218750 -138422.000000 788297.187500 255 255 255
396998.656250 -138465.765625 788546.437500 255 255 255
397911.906250 -138491.531250 788693.187500 255 255 255
398873.500000 -138533.984375 788934.937500 255 255 255
399811.093750 -138567.921875 789128.250000 255 255 255
400755.843750 -138604.218750 789334.875000 255 255 255
401736.906250 -138652.875000 789612.062500 255 255 255
402674.750000 -138686.453125 789803.250000 255 255 255
403670.437500 -138739.765625 790106.875000 255 255 255
404633.781250 -138781.781250 790346.125000 255 255 254
405601.968750 -138825.265625 790593.750000 255 255 254
406601.031250 -138879.109375 790900.437500 255 255 254
407542.718750 -138913.187500 791094.437500 255 255 255
408584.562500 -138981.187500 791481.687500 255 255 255
409599.906250 -139039.906250 791816.125000 255 255 255
410656.468750 -139112.359375 792228.750000 255 255 255
411795.718750 -139212.468750 792798.812500 255 255 255
412860.250000 -139286.953125 793223.000000 255 255 255
414071.281250 -139410.453125 793926.375000 255 255 255
415202.531250 -139506.656250 794474.187500 255 255 255
416375.750000 -139616.531250 795099.937500 255 255 255
417679.906250 -139769.781250 795972.687500 255 255 255
418861.593750 -139881.515625 796608.937500 255 255 255
420247.125000 -140060.718750 797629.562500 255 255 255
421509.937500 -140198.406250 798413.625000 255 255 255
422818.343750 -140350.656250 799280.750000 255 254 255
424305.062500 -140561.375000 800480.750000 255 254 255
425613.937500 -140712.453125 801341.062500 255 254 255
427193.156250 -140952.125000 802705.937500 255 254 255
428602.031250 -141134.734375 803745.937500 255 254 253
430067.500000 -141335.234375 804887.750000 255 255 250
431775.218750 -141614.390625 806477.437500 254 255 246
433245.687500 -141814.765625 807618.625000 251 253 240
435074.687500 -142131.484375 809422.250000 255 255 242
436717.406250 -142386.203125 810872.937500 239 246 220
438366.500000 -142642.000000 812329.625000 200 210 177
440209.375000 -142959.718750 814139.000000 194 208 169
441694.656250 -143160.296875 815281.250000 212 227 185
443490.093750 -143460.406250 816990.375000 223 240 194
445082.500000 -143693.796875 818319.500000 226 243 195
446636.875000 -143914.015625 819573.625000 225 243 195
448375.187500 -144192.546875 821159.750000 226 245 196
449788.875000 -144365.781250 822146.375000 227 246 197
451364.062500 -144590.093750 823423.750000 228 246 199
452696.656250 -144735.968750 824254.500000 232 250 205
453971.843750 -144862.953125 824977.687500 238 255 212
455430.937500 -145048.031250 826031.687500 240 255 216
456700.375000 -145172.093750 826738.250000 245 255 221
458120.562500 -145343.515625 827714.500000 249 255 226
459390.500000 -145466.718750 828416.062500 252 255 229
460620.843750 -145576.921875 829043.625000 255 255 232
461952.750000 -145718.734375 829851.250000 254 255 234
463111.062500 -145805.343750 830344.562500 254 255 234
464380.906250 -145926.703125 831035.625000 252 255 231
465540.812500 -146013.093750 831527.625000 247 252 225
466683.125000 -146093.656250 831986.375000 245 253 225
467907.750000 -146199.640625 832589.937500 245 255 225
469008.718750 -146266.656250 832971.562500 242 253 221
470293.312500 -146390.562500 833677.250000 237 251 217
471593.750000 -146518.937500 834408.312500 235 250 214
472830.781250 -146627.156250 835024.625000 235 251 212
473950.812500 -146698.781250 835432.500000 234 252 210
474841.000000 -146699.109375 835434.375000 233 251 207
475798.406250 -146720.156250 835554.250000 231 249 207
476596.906250 -146692.218750 835395.187500 230 249 211
477710.875000 -146761.312500 835788.687500 232 251 214
478652.968750 -146777.437500 835880.500000 223 240 201
479469.031250 -146754.937500 835752.312500 226 241 202
484034.468750 -147878.000000 842148.000000 244 255 218
477016.281250 -145464.515625 828403.500000 225 233 198
492913.468750 -150035.000000 854431.875000 197 203 171
568611.875000 -172757.687500 983834.937500 200 204 175
695187.937500 -210826.250000 1200631.000000 211 211 183
968376.187500 -293135.937500 1669375.000000 201 199 172
1365781.000000 -412676.718750 2350146.000000 149 145 121
1514900.000000 -559463.625000 3205508.500000 159 161 151
792595.187500 -292053.500000 1673352.625000 226 228 219
508194.750000 -186838.531250 1070511.875000 252 253 247
388954.250000 -142679.718750 817499.187500 255 255 254
347356.906250 -127136.218750 728440.937500 254 254 255
359807.031250 -131399.828125 752869.812500 255 254 255
370388.562500 -134963.609375 773288.812500 255 254 255
371915.531250 -135219.562500 774755.375000 255 254 251
373888.093750 -135636.031250 777141.562500 254 255 249
375505.500000 -135922.109375 778780.687500 254 255 247
376667.406250 -136042.406250 779469.937500 254 255 247
377935.750000 -136200.531250 780375.937500 254 255 248
379037.937500 -136298.218750 780935.687500 254 255 249
380126.281250 -136390.515625 781464.437500 254 255 250
381439.875000 -136563.046875 782453.000000 255 255 251
382665.968750 -136703.578125 783258.187500 255 255 253
383911.375000 -136850.375000 784099.250000 255 255 255
384951.656250 -136923.562500 784518.625000 255 255 255
385889.750000 -136960.187500 784728.437500 255 255 255
386863.656250 -137009.328125 785010.000000 255 255 255
387745.875000 -137025.843750 785104.625000 255 255 255
388699.625000 -137067.531250 785343.500000 255 255 255
389665.656250 -137113.343750 785606.000000 255 255 255
390635.875000 -137160.437500 785875.875000 255 255 255
391608.406250 -137208.140625 786149.187500 255 255 255
392514.656250 -137232.468750 786288.562500 255 255 255
393481.968750 -137278.000000 786549.375000 255 255 255
394440.531250 -137320.296875 786791.750000 255 255 255
395400.781250 -137362.984375 787036.375000 255 255 255
396377.281250 -137411.125000 787312.187500 255 255 255
397295.156250 -137438.796875 787470.750000 255 255 255
398259.531250 -137482.406250 787720.562500 255 255 255
399196.968750 -137516.531250 787916.125000 255 255 255
400137.031250 -137551.421875 788116.062500 255 255 255
401110.375000 -137597.609375 788380.625000 255 255 254
402039.687500 -137628.500000 788557.687500 255 255 253
403025.375000 -137678.531250 788844.250000 255 255 253
403981.187500 -137718.171875 789071.437500 255 255 254
404944.531250 -137760.203125 789312.250000 255 255 255
405941.250000 -137813.406250 789617.062500 255 255 255
406883.968750 -137848.078125 789815.750000 255 255 255
407928.281250 -137916.953125 790210.437500 255 255 255
408945.750000 -137976.500000 790551.562500 255 255 255
410004.187500 -138049.593750 790970.375000 255 255 255
411144.812500 -138150.015625 791545.687500 255 255 255
412208.750000 -138224.296875 791971.312500 255 255 255
413417.812500 -138346.828125 792673.375000 255 255 255
414547.093750 -138442.234375 793220.062500 255 255 255
415715.718750 -138550.359375 793839.562500 255 255 255
417012.125000 -138700.546875 794700.062500 255 255 255
418186.031250 -138809.468750 795324.187500 255 255 255
419557.281250 -138983.328125 796320.312500 254 255 255
420804.875000 -139115.593750 797078.125000 254 255 255
422099.312500 -139262.781250 797921.500000 255 255 255
423576.875000 -139469.687500 799106.937500 255 255 255
424884.593750 -139619.953125 799967.875000 255 255 255
426454.375000 -139855.546875 801317.750000 255 254 255
427844.000000 -140031.250000 802324.500000 255 254 254
429296.468750 -140226.765625 803444.750000 255 255 250
431007.250000 -140505.718750 805043.000000 254 255 246
432492.531250 -140710.203125 806214.625000 252 253 240
434353.593750 -141035.890625 808080.687500 255 255 242
436028.593750 -141300.000000 809593.937500 243 250 225
437711.906250 -141565.750000 811116.625000 208 218 185
439589.187500 -141893.078125 812992.000000 203 215 176
441091.656250 -142098.359375 814168.187500 216 230 187
442908.437500 -142403.906250 815918.875000 221 237 190
444509.750000 -142639.093750 817266.437500 224 240 193
446075.906250 -142862.125000 818544.250000 226 243 196
447847.937500 -143150.078125 820194.187500 228 246 197
449295.031250 -143333.265625 821243.687500 229 247 197
450899.281250 -143565.765625 822575.875000 231 249 199
452236.781250 -143712.609375 823417.187500 235 253 205
453511.281250 -143838.890625 824140.750000 240 255 212
454980.500000 -144026.328125 825214.687500 245 255 220
456259.312500 -144152.890625 825939.812500 246 255 223
457709.875000 -144333.109375 826972.437500 247 255 227
459023.093750 -144469.421875 827753.500000 250 255 232
460288.906250 -144590.312500 828446.187500 252 255 234
461623.562500 -144732.343750 829259.937500 250 255 233
462755.218750 -144810.296875 829706.562500 250 255 231
464033.687500 -144933.812500 830414.250000 250 255 231
465240.062500 -145034.375000 830990.437500 246 255 226
466437.031250 -145131.640625 831547.687500 244 254 224
467706.625000 -145251.078125 832232.062500 243 253 223
468827.437500 -145323.953125 832649.625000 238 251 217
470080.468750 -145437.468750 833299.937500 235 249 214
471243.031250 -145522.609375 833787.812500 235 250 212
472427.281250 -145614.109375 834312.062500 235 252 210
473774.375000 -145755.359375 835121.437500 235 254 209
475017.531250 -145864.187500 835744.937500 235 253 208
476229.468750 -145963.031250 836311.250000 231 251 207
477063.187500 -145945.796875 836212.500000 228 250 208
478055.343750 -145977.000000 836391.312500 230 250 210
479163.406250 -146043.421875 836771.875000 225 242 203
480243.406250 -146101.062500 837102.125000 223 239 200
483442.250000 -146801.890625 841117.625000 227 241 204
477618.343750 -144765.343750 829449.000000 223 234 200
488358.000000 -147747.453125 846535.312500 220 228 197
535354.687500 -161667.546875 926292.000000 227 233 205
604445.687500 -182196.296875 1043913.750000 232 234 207
773435.750000 -232706.734375 1333318.875000 220 220 194
1062416.500000 -319068.187500 1828136.375000 162 160 136
1022630.062500 -375361.843750 2163872.000000 191 192 183
610828.937500 -223704.265625 1289602.000000 251 251 245
453238.406250 -165617.640625 954746.437500 254 254 250
380764.843750 -138823.890625 800286.812500 248 250 248
350065.593750 -127346.335938 734121.375000 253 254 253
360833.593750 -130971.195312 755017.812500 255 255 255
369994.375000 -133997.859375 772465.875000 255 254 255
371552.500000 -134263.828125 773999.125000 254 253 252
373253.343750 -134580.078125 775822.187500 254 254 250
374832.687500 -134851.218750 777385.250000 254 255 249
376007.031250 -134975.796875 778103.375000 254 255 250
377271.843750 -135132.203125 779005.062500 255 255 250
378353.500000 -135222.484375 779525.500000 255 255 251
379416.000000 -135305.531250 780004.312500 255 255 253
380705.375000 -135468.953125 780946.375000 255 255 253
381917.437500 -135604.203125 781726.062500 255 255 253
383150.062500 -135746.156250 782544.375000 255 255 254
384185.281250 -135817.703125 782956.812500 255 255 255
385122.218750 -135854.265625 783167.625000 255 255 255
386090.750000 -135901.812500 783441.687500 255 255 255
386968.218750 -135917.140625 783530.062500 255 254 255
387923.437500 -135959.687500 783775.250000 255 254 255
388893.750000 -136007.296875 784049.750000 255 254 255
389874.656250 -136058.421875 784344.500000 255 254 255
390865.906250 -136112.921875 784658.625000 255 255 255
391789.312500 -136143.609375 784835.500000 255 255 255
392775.718750 -136196.015625 785137.687500 255 255 255
393744.406250 -136242.078125 785403.187500 255 255 255
394710.437500 -136287.000000 785662.187500 255 255 255
395695.156250 -136338.203125 785957.375000 255 255 255
396616.281250 -136367.296875 786125.125000 255 255 255
397582.593750 -136411.796875 786381.562500 255 255 255
398519.406250 -136446.000000 786578.812500 255 255 255
399455.593750 -136479.843750 786773.937500 255 255 255
400423.031250 -136524.203125 787029.562500 255 255 255
401345.656250 -136553.125000 787196.375000 255 255 253
402323.718750 -136600.765625 787470.937500 255 255 253
403273.562500 -136638.640625 787689.250000 255 255 254
404233.156250 -136679.640625 787925.687500 255 255 255
405227.375000 -136732.156250 788228.437500 255 255 255
406170.000000 -136767.093750 788429.812500 255 255 255
407217.531250 -136837.140625 788833.625000 255 255 255
408240.031250 -136898.484375 789187.312500 255 255 255
409303.062500 -136973.171875 789617.812500 255 255 253
410445.656250 -137074.109375 790199.625000 255 255 253
411508.062500 -137147.906250 790625.062500 255 255 253
412714.500000 -137269.296875 791324.937500 255 255 253
413841.375000 -137363.796875 791869.687500 255 255 253
415006.156250 -137470.468750 792484.625000 255 255 255
416298.281250 -137618.812500 793339.750000 255 255 255
417468.500000 -137726.328125 793959.562500 255 255 255
418829.000000 -137896.046875 794938.000000 254 255 255
420061.500000 -138023.031250 795670.062500 254 255 255
421341.812500 -138165.203125 796489.562500 254 255 255
422815.250000 -138369.984375 797670.062500 255 255 255
424128.093750 -138521.500000 798543.562500 255 255 253
425684.031250 -138751.640625 799870.312500 255 255 253
427043.218750 -138916.859375 800822.750000 255 255 252
428462.656250 -139101.000000 801884.187500 255 255 251
430140.687500 -139368.171875 803424.437500 255 255 250
431606.531250 -139565.687500 804563.062500 253 253 245
433507.062500 -139902.687500 806505.812500 255 255 245
435271.718750 -140194.609375 808188.625000 244 251 230
437054.968750 -140491.343750 809899.250000 213 222 192
438994.187500 -140836.953125 811891.562500 205 215 179
440503.531250 -141043.562500 813082.687500 216 229 186
442339.843750 -141353.859375 814871.437500 224 241 193
443959.281250 -141593.765625 816254.375000 230 246 200
445548.218750 -141823.015625 817576.000000 228 244 199
447361.531250 -142122.656250 819303.375000 227 243 195
448843.656250 -142316.125000 820418.625000 229 247 195
450491.656250 -142561.343750 821832.250000 233 251 198
451858.156250 -142716.687500 822727.812500 236 253 203
453154.125000 -142849.203125 823491.750000 242 255 213
454645.781250 -143042.781250 824607.625000 247 255 220
455932.218750 -143171.156250 825347.687500 246 255 223
457407.718750 -143358.296875 826426.562500 245 255 225
458757.000000 -143505.250000 827273.625000 246 255 229
460050.812500 -143634.296875 828017.625000 248 255 233
461390.437500 -143777.156250 828841.125000 249 255 233
462504.343750 -143849.250000 829256.750000 249 255 232
463767.062500 -143967.265625 829937.062500 248 255 230
464972.062500 -144066.937500 830511.687500 243 254 225
466165.843750 -144162.781250 831064.250000 242 254 223
467425.687500 -144278.656250 831732.187500 241 254 222
468537.000000 -144348.312500 832133.750000 238 252 217
469739.812500 -144445.859375 832696.125000 236 250 213
470805.437500 -144500.921875 833013.500000 235 250 211
471930.687500 -144574.046875 833435.062500 234 251 208
473341.000000 -144734.078125 834357.562500 234 252 207
474720.906250 -144884.203125 835223.000000 233 251 206
476025.968750 -145010.984375 835953.875000 230 249 204
476904.781250 -145007.687500 835934.875000 225 246 203
477816.656250 -145014.421875 835973.750000 224 243 202
479070.843750 -145124.843750 836610.250000 225 242 203
480381.187500 -145251.828125 837342.312500 223 238 200
481942.875000 -145454.203125 838508.937500 217 232 196
477028.843750 -143705.015625 828425.312500 222 234 202
482201.125000 -144995.171875 835862.750000 232 241 214
504426.718750 -151398.984375 872779.187500 244 252 225
534311.250000 -160073.781250 922787.312500 251 255 231
633939.375000 -189572.828125 1092842.375000 232 234 209
814159.062500 -243019.750000 1400951.125000 161 161 137
807514.187500 -294583.906250 1708689.500000 221 221 211
514893.250000 -187412.750000 1087059.375000 255 255 255
418235.312500 -151889.562500 881012.437500 255 255 251
376731.593750 -136510.703125 791809.750000 252 253 251
354142.062500 -128038.867188 742670.125000 253 254 255
362495.312500 -130767.109375 758494.875000 252 252 254
369635.281250 -133046.500000 771716.187500 255 253 254
371116.187500 -133283.406250 773090.250000 255 254 255
372780.875000 -133585.093750 774840.125000 255 255 253
374373.843750 -133859.812500 776433.687500 255 255 252
375609.250000 -134005.765625 777280.187500 255 255 252
376919.687500 -134177.781250 778277.937500 255 255 252
378000.843750 -134267.609375 778798.937500 255 255 254
379050.406250 -134345.828125 779252.687500 255 255 255
380343.343750 -134509.781250 780203.687500 255 255 255
381563.187500 -134647.234375 781000.937500 255 255 255
382800.781250 -134790.328125 781830.937500 255 255 255
383834.968750 -134861.359375 782242.937500 255 255 255
384767.625000 -134896.453125 782446.500000 255 255 255
385731.031250 -134942.187500 782711.750000 255 254 255
386603.406250 -134955.921875 782791.437500 255 254 255
387553.718750 -134996.750000 783028.250000 255 254 255
388520.281250 -135043.046875 783296.812500 255 254 255
389500.500000 -135093.890625 783591.687500 255 255 255
390494.968750 -135149.453125 783914.000000 255 255 255
391423.625000 -135182.046875 784103.000000 255 255 255
392415.156250 -135236.156250 784416.875000 255 255 255
393385.093750 -135282.625000 784686.437500 255 255 255
394351.125000 -135327.546875 784947.000000 255 255 255
395337.031250 -135379.093750 785246.000000 255 255 255
396258.687500 -135408.468750 785416.312500 255 255 255
397224.437500 -135452.750000 785673.187500 255 255 255
398159.750000 -135486.484375 785868.875000 255 255 254
399093.468750 -135519.546875 786060.625000 255 255 253
400057.906250 -135562.875000 786312.000000 255 255 254
400977.843750 -135590.968750 786474.937500 255 255 253
401953.031250 -135637.593750 786745.375000 255 255 253
402900.593750 -135674.734375 786960.812500 255 255 254
403858.812500 -135715.281250 787196.000000 255 255 255
404851.968750 -135767.390625 787498.250000 255 255 255
405794.187500 -135802.234375 787700.312500 255 255 255
406844.875000 -135873.156250 788111.687500 255 255 255
407872.750000 -135936.187500 788477.312500 255 255 253
408941.406250 -136012.515625 788920.062500 255 255 253
410087.375000 -136114.203125 789509.875000 255 255 253
411149.500000 -136187.703125 789936.187500 255 255 253
412355.718750 -136308.531250 790637.000000 255 255 253
413481.843750 -136402.437500 791181.750000 255 255 253
414645.937500 -136508.468750 791796.750000 255 255 255
415939.250000 -136656.531250 792655.562500 255 255 255
417111.250000 -136764.203125 793280.062500 255 255 255
418469.031250 -136932.250000 794254.812500 255 255 255
419693.968750 -137056.218750 794973.875000 255 255 255
420966.625000 -137195.250000 795780.312500 255 255 255
422440.343750 -137399.125000 796962.812500 255 255 255
423759.375000 -137551.953125 797849.375000 255 255 253
425300.687500 -137776.187500 799150.000000 255 255 253
426630.593750 -137931.187500 800049.000000 255 255 252
428012.343750 -138102.281250 801041.437500 255 255 251
429639.062500 -138351.593750 802487.562500 255 255 254
431063.875000 -138535.031250 803551.500000 253 253 251
432988.187500 -138877.937500 805540.437500 255 255 249
434845.531250 -139198.062500 807397.312500 249 254 238
436734.500000 -139527.015625 809305.375000 226 234 209
438728.250000 -139888.093750 811399.750000 210 220 186
440232.625000 -140092.031250 812582.625000 214 226 184
442075.718750 -140402.734375 814384.812500 229 243 198
443709.343750 -140645.828125 815794.812500 233 248 204
445316.156250 -140879.484375 817150.187500 227 242 199
447155.375000 -141185.609375 818925.750000 227 243 197
448657.218750 -141384.234375 820077.875000 234 252 201
450338.906250 -141638.640625 821553.562500 235 253 201
451738.656250 -141803.578125 822510.250000 236 253 204
453061.593750 -141943.796875 823323.562500 242 255 214
454569.625000 -142141.359375 824469.500000 243 255 219
455853.531250 -142268.218750 825205.250000 242 255 221
457334.593750 -142455.984375 826294.437500 242 255 223
458698.812500 -142606.718750 827168.687500 241 253 226
460004.093750 -142738.578125 827933.562500 243 255 230
461347.562500 -142881.765625 828764.125000 246 255 233
462456.718750 -142951.984375 829171.375000 247 255 232
463693.656250 -143061.343750 829805.750000 245 255 228
464863.750000 -143149.718750 830318.312500 242 254 225
466017.343750 -143232.671875 830799.500000 241 255 223
467244.281250 -143337.828125 831409.375000 241 255 221
468342.593750 -143403.187500 831788.500000 238 252 217
469502.687500 -143487.187500 832275.750000 235 250 212
470518.906250 -143526.984375 832506.562500 233 249 207
471586.125000 -143582.156250 832826.562500 232 249 204
472921.031250 -143718.468750 833617.250000 230 249 203
474245.812500 -143851.203125 834387.125000 229 248 202
475524.500000 -143969.484375 835073.250000 225 245 200
476439.250000 -143977.343750 835118.812500 220 241 198
477384.156250 -143994.265625 835217.000000 219 239 197
478600.718750 -144092.921875 835789.250000 219 236 198
479840.343750 -144198.140625 836399.562500 221 237 201
481567.875000 -144449.328125 837856.437500 232 245 211
479665.968750 -143612.921875 833005.000000 235 247 217
483692.781250 -144551.375000 838448.437500 233 244 219
493946.156250 -147343.781250 854645.312500 247 254 232
506005.218750 -150663.546875 873901.125000 255 255 243
571967.937500 -169991.578125 986010.437500 233 236 213
689266.625000 -204478.125000 1186044.500000 160 162 138
1251706.125000 -454832.093750 2654571.750000 154 151 138
635825.250000 -230519.343750 1345397.875000 233 231 221
433450.812500 -156795.125000 915115.500000 254 255 248
383095.406250 -138269.031250 806990.250000 254 255 249
371543.281250 -133799.609375 780905.000000 252 254 252
358797.062500 -128921.085938 752432.062500 253 255 255
364342.312500 -130622.046875 762359.562500 254 254 255
369186.250000 -132064.562500 770778.687500 255 254 255
370574.093750 -132267.140625 771960.937500 255 253 254
372136.562500 -132531.000000 773500.937500 255 254 255
373722.125000 -132801.906250 775082.062500 255 255 255
375017.937500 -132968.875000 776056.562500 255 255 254
376373.375000 -133156.203125 777149.875000 255 255 254
377453.500000 -133245.546875 777671.250000 255 255 255
378491.281250 -133319.562500 778103.250000 255 255 255
379787.562500 -133484.109375 779063.625000 255 255 255
381014.437500 -133623.593750 779877.750000 255 255 255
382261.250000 -133769.453125 780729.062500 255 255 255
383301.468750 -133842.546875 781155.625000 255 255 255
384238.750000 -133879.453125 781371.000000 255 255 255
385207.562500 -133927.171875 781649.500000 255 255 255
386082.062500 -133941.953125 781735.812500 255 255 255
387034.906250 -133983.796875 781980.000000 255 255 255
388001.312500 -134030.156250 782250.562500 255 255 255
388982.562500 -134081.421875 782549.750000 255 255 255
389983.687500 -134139.312500 782887.625000 255 255 255
390919.625000 -134174.562500 783093.437500 255 255 255
391918.375000 -134231.187500 783423.875000 255 255 253
392890.906250 -134278.609375 783700.687500 255 255 253
393857.656250 -134323.875000 783964.812500 255 255 253
394846.031250 -134376.296875 784270.750000 255 255 254
395768.750000 -134406.187500 784445.250000 255 255 255
396734.062500 -134450.406250 784703.312500 255 255 255
397667.156250 -134483.531250 784896.625000 255 255 254
398597.031250 -134515.437500 785082.812500 255 255 253
399556.812500 -134557.281250 785327.062500 255 255 252
400472.625000 -134584.171875 785484.000000 255 255 253
401444.250000 -134629.671875 785749.562500 255 255 253
402390.218750 -134666.390625 785963.875000 255 255 253
403348.281250 -134707.000000 786200.875000 255 255 253
404341.250000 -134759.078125 786504.812500 255 255 253
405283.250000 -134793.984375 786708.562500 255 255 254
406337.375000 -134865.953125 787128.625000 255 255 254
407371.250000 -134930.937500 787507.812500 255 255 253
408444.781250 -135008.750000 787962.000000 255 255 253
409591.968750 -135110.531250 788556.062500 255 255 253
410651.187500 -135182.968750 788978.750000 255 255 254
411851.250000 -135301.359375 789669.750000 255 254 255
412970.562500 -135392.796875 790203.437500 255 254 255
414126.593750 -135495.875000 790805.000000 255 254 255
415412.125000 -135640.812500 791651.000000 255 254 255
416579.593750 -135746.703125 792268.937500 255 255 255
417924.187500 -135909.765625 793220.687500 255 255 255
419131.843750 -136027.718750 793909.125000 255 255 255
420387.968750 -136160.906250 794686.437500 255 255 255
421853.968750 -136361.406250 795856.562500 255 255 255
423175.812500 -136514.578125 796750.625000 255 255 253
424699.250000 -136732.046875 798019.875000 255 255 253
426001.406250 -136877.562500 798869.062500 255 255 253
427343.156250 -137035.187500 799789.000000 255 255 253
428906.031250 -137262.937500 801118.312500 254 255 255
430274.250000 -137427.640625 802079.500000 253 255 254
432197.718750 -137768.656250 804069.875000 254 255 251
434116.250000 -138106.765625 806043.250000 252 255 243
436096.343750 -138463.093750 808122.812500 244 251 229
438167.968750 -138847.015625 810363.562500 222 233 201
439714.062500 -139063.218750 811625.437500 212 224 185
441603.093750 -139386.828125 813514.125000 228 240 198
443259.468750 -139635.875000 814967.687500 233 247 207
444880.406250 -139872.812500 816350.500000 228 244 204
446746.843750 -140185.859375 818177.625000 230 245 203
448267.000000 -140389.250000 819364.625000 237 254 207
449981.375000 -140652.546875 820901.312500 239 255 209
451412.343750 -140826.421875 821916.062500 238 255 209
452763.468750 -140974.734375 822781.750000 239 254 212
454296.625000 -141179.062500 823974.312500 238 253 215
455589.125000 -141307.968750 824726.625000 240 255 220
457085.187500 -141499.390625 825843.812500 241 255 222
458462.312500 -141653.328125 826742.250000 239 253 222
459780.125000 -141788.375000 827530.500000 241 254 226
461142.687500 -141936.687500 828396.062500 245 255 231
462265.906250 -142010.906250 828829.187500 245 255 230
463506.343750 -142120.781250 829470.500000 241 253 224
464667.437500 -142205.953125 829967.625000 239 254 222
465803.062500 -142283.031250 830417.437500 240 255 221
467015.625000 -142383.265625 831002.500000 238 252 216
468105.843750 -142445.890625 831368.000000 233 249 212
469229.062500 -142518.312500 831790.687500 229 247 207
470209.687500 -142547.234375 831959.437500 227 244 202
471215.406250 -142583.640625 832171.875000 226 243 200
472436.656250 -142684.984375 832763.437500 224 242 199
473654.750000 -142785.015625 833347.250000 223 241 198
474851.187500 -142878.156250 833890.812500 222 240 197
475770.281250 -142887.640625 833946.250000 219 238 195
476729.593750 -142909.171875 834071.875000 218 236 195
477908.000000 -142996.156250 834579.562500 219 237 198
479097.593750 -143086.171875 835104.875000 229 246 208
480887.875000 -143354.921875 836673.375000 242 254 222
481592.812500 -143299.718750 836351.250000 237 251 222
484379.500000 -143863.015625 839638.812500 232 245 220
485231.531250 -143850.687500 839566.937500 245 251 233
484809.687500 -143461.453125 837295.187500 255 255 245
521694.000000 -154092.781250 899343.625000 234 239 217
584108.375000 -172212.171875 1005095.187500 179 181 157
699318.187500 -205802.484375 1201141.000000 141 140 115
1081608.500000 -390582.562500 2293835.000000 175 171 157
555222.687500 -200046.421875 1174843.875000 243 240 230
391523.750000 -140748.828125 826597.625000 255 255 249
362283.156250 -129945.164062 763149.250000 254 254 250
367659.218750 -131578.484375 772741.500000 253 254 252
361644.062500 -129136.921875 758402.562500 254 255 254
365450.250000 -130205.437500 764677.812500 255 255 255
368903.468750 -131143.734375 770188.312500 255 254 255
370243.718750 -131328.390625 771272.750000 254 252 255
371693.625000 -131551.031250 772580.250000 254 253 255
373261.937500 -131814.500000 774127.625000 255 255 255
374588.312500 -131991.578125 775167.500000 255 255 255
375958.812500 -132183.375000 776293.937500 255 255 255
377020.531250 -132266.000000 776779.187500 255 255 255
378041.500000 -132334.000000 777178.562500 255 255 255
379348.812500 -132501.734375 778163.562500 255 255 254
380601.156250 -132649.562500 779031.812500 255 255 254
381876.843750 -132804.875000 779943.937500 255 255 253
382932.281250 -132883.093750 780403.250000 255 255 254
383881.281250 -132924.093750 780644.125000 255 255 255
384867.062500 -132977.640625 780958.562500 255 255 255
385751.625000 -132996.062500 781066.750000 255 255 255
386714.000000 -133041.171875 781331.625000 255 255 255
387682.687500 -133088.250000 781608.187500 255 255 255
388664.281250 -133139.546875 781909.375000 255 255 255
389670.875000 -133199.171875 782259.562500 255 255 254
390611.750000 -133236.140625 782476.687500 255 255 253
391615.968750 -133294.500000 782819.375000 255 255 253
392590.906250 -133342.656250 783102.250000 255 255 253
393558.875000 -133388.265625 783370.062500 255 255 253
394549.593750 -133441.359375 783681.937500 255 255 254
395473.593750 -133471.734375 783860.250000 255 255 255
396438.593750 -133515.765625 784118.875000 255 255 255
397370.187500 -133548.390625 784310.500000 255 255 255
398296.718750 -133579.187500 784491.375000 254 255 255
399250.968750 -133619.140625 784725.937500 255 255 254
400161.375000 -133644.265625 784873.562500 254 255 254
401128.812500 -133688.296875 785132.125000 254 255 253
402073.937500 -133724.734375 785346.062500 254 255 253
403032.125000 -133765.343750 785584.687500 254 255 253
404023.781250 -133816.875000 785887.312500 254 255 251
404964.156250 -133851.250000 786089.125000 254 255 252
406017.562500 -133922.765625 786509.125000 254 255 253
407052.750000 -133987.984375 786892.125000 254 255 252
408126.468750 -134065.593750 787347.937500 255 255 253
409270.843750 -134166.046875 787937.875000 255 255 253
410325.812500 -134236.828125 788353.625000 255 255 254
411515.281250 -134351.250000 789025.625000 255 255 255
412623.375000 -134438.687500 789539.125000 255 255 255
413766.218750 -134537.062500 790116.875000 255 254 255
415037.843750 -134676.843750 790937.750000 255 254 255
416196.593750 -134779.500000 791540.562500 255 255 255
417524.500000 -134936.390625 792462.000000 255 255 255
418713.843750 -135047.984375 793117.375000 255 255 255
419953.718750 -135175.375000 793865.500000 255 255 255
421409.250000 -135371.546875 795017.625000 255 255 255
422730.656250 -135523.921875 795912.500000 255 255 253
424241.156250 -135736.187500 797159.062500 255 255 253
425526.437500 -135875.687500 797978.437500 255 255 253
426842.656250 -136024.500000 798852.312500 255 255 253
428363.281250 -136237.734375 800104.562500 254 255 255
429693.625000 -136389.703125 800997.125000 254 255 255
431597.625000 -136722.812500 802953.437500 253 254 251
433518.406250 -137059.906250 804933.125000 250 255 242
435530.375000 -137424.453125 807074.062500 250 255 237
437664.281250 -137825.953125 809432.000000 234 243 216
439276.250000 -138061.843750 810817.312500 217 229 193
441224.187500 -138402.187500 812816.125000 222 234 195
442898.156250 -138655.421875 814303.375000 229 243 205
444518.500000 -138890.921875 815686.437500 232 247 210
446393.906250 -139205.046875 817531.250000 233 248 208
447916.718750 -139408.203125 818724.375000 234 251 206
449638.687500 -139672.453125 820276.187500 236 254 207
451075.812500 -139847.343750 821303.312500 237 253 209
