ply
		format ascii 1.0
		element vertex 58324
		property float x
		property float y
		property float z
		property uchar red
		property uchar green
		property uchar blue
		end_header
481813.281250 -31317.675781 1014939.375000 255 255 255
482718.000000 -31306.298828 1014570.687500 255 255 255
483581.843750 -31292.324219 1014117.812500 255 255 255
484522.781250 -31283.392578 1013828.375000 255 255 255
485373.312500 -31268.675781 1013351.437500 255 255 255
486265.718750 -31256.716797 1012963.812500 255 255 255
487147.500000 -31244.126953 1012555.875000 255 255 255
487990.562500 -31229.117188 1012069.375000 255 255 255
488922.312500 -31219.833984 1011768.562500 255 255 255
489667.000000 -31198.673828 1011082.812500 255 255 255
490390.750000 -31176.277344 1010357.000000 255 255 255
491100.968750 -31153.119141 1009606.437500 255 255 255
491761.531250 -31126.919922 1008757.375000 255 255 255
492583.125000 -31111.005859 1008241.625000 255 255 255
493565.937500 -31105.320312 1008057.375000 255 255 255
494787.125000 -31114.646484 1008359.687500 255 254 255
496106.500000 -31130.097656 1008860.375000 255 253 255
497137.718750 -31127.439453 1008774.187500 255 253 254
498004.781250 -31114.533203 1008356.000000 253 253 253
499817.531250 -31160.642578 1009850.312500 255 255 255
501611.843750 -31205.408203 1011301.062500 255 255 255
504763.937500 -31334.267578 1015477.125000 251 252 253
507975.718750 -31466.273438 1019755.125000 252 253 255
510465.968750 -31553.119141 1022569.625000 252 255 255
526244.812500 -32459.244141 1051935.250000 168 173 174
1126263.750000 -89048.085938 2988949.500000 136 139 133
1072104.000000 -84527.203125 2837203.500000 137 139 131
1056413.750000 -83056.226562 2787829.500000 144 145 136
998047.750000 -78247.671875 2626427.500000 144 145 134
886983.000000 -69345.898438 2327634.500000 141 141 128
798696.875000 -62269.625000 2090115.375000 141 142 125
645011.937500 -50148.062500 1683248.250000 146 145 124
525566.312500 -40748.292969 1367739.625000 183 182 162
450763.875000 -34852.171875 1169832.875000 237 237 224
413805.750000 -31906.515625 1070960.375000 255 255 255
414024.031250 -31835.658203 1068582.000000 254 252 254
413489.125000 -31707.433594 1064278.000000 255 254 255
412556.875000 -31549.521484 1058977.625000 255 254 255
414262.875000 -31593.675781 1060459.750000 254 254 255
414667.406250 -31538.605469 1058611.250000 254 254 255
415691.937500 -31530.859375 1058351.250000 255 255 255
416423.218750 -31500.974609 1057348.125000 254 255 255
417041.937500 -31462.755859 1056065.250000 254 255 255
417662.093750 -31424.851562 1054793.000000 255 255 253
418268.187500 -31386.095703 1053492.125000 255 255 253
419124.625000 -31366.283203 1052827.125000 255 255 253
419910.718750 -31341.324219 1051989.375000 255 255 253
420845.187500 -31327.544922 1051526.875000 255 255 253
421775.437500 -31313.523438 1051056.250000 255 254 255
422524.218750 -31286.140625 1050137.125000 255 254 255
423330.093750 -31263.117188 1049364.375000 255 255 255
424022.531250 -31231.861328 1048315.187500 255 255 255
424872.937500 -31212.375000 1047661.125000 255 255 255
425696.531250 -31191.023438 1046944.437500 255 255 255
426328.531250 -31155.783203 1045761.562500 255 255 255
427056.562500 -31127.726562 1044819.812500 255 255 255
427653.906250 -31090.312500 1043564.000000 255 255 255
428414.031250 -31064.898438 1042710.937500 255 255 255
429203.468750 -31041.732422 1041933.437500 255 255 255
429880.781250 -31010.599609 1040888.437500 255 255 255
430709.468750 -30990.519531 1040214.375000 255 255 255
431434.812500 -30963.125000 1039294.875000 255 255 255
432274.031250 -30944.021484 1038653.687500 255 255 255
433135.281250 -30926.587891 1038068.562500 255 255 255
433910.218750 -30903.097656 1037280.062500 255 255 255
434800.437500 -30887.916016 1036770.437500 255 255 255
435589.937500 -30865.673828 1036023.875000 255 255 255
436454.375000 -30848.839844 1035458.812500 255 255 255
437330.625000 -30832.923828 1034924.625000 255 255 255
438145.187500 -30812.750000 1034247.500000 255 255 255
439066.468750 -30800.164062 1033825.000000 255 255 255
439905.687500 -30781.898438 1033211.875000 255 255 255
440812.437500 -30768.435547 1032760.000000 255 255 255
441725.031250 -30755.447266 1032324.125000 255 255 255
442572.031250 -30737.970703 1031737.437500 255 255 255
443501.937500 -30726.322266 1031346.500000 255 255 255
444365.375000 -30710.136719 1030803.187500 255 255 255
445295.781250 -30698.648438 1030417.625000 255 255 255
446236.000000 -30687.892578 1030056.562500 255 255 255
447116.218750 -30673.072266 1029559.125000 255 255 255
448066.750000 -30663.136719 1029225.625000 255 255 255
448981.031250 -30650.773438 1028810.687500 255 255 255
449968.375000 -30643.447266 1028564.750000 255 255 255
450964.812500 -30636.775391 1028340.750000 255 255 255
451895.937500 -30625.707031 1027969.312500 255 255 255
452866.875000 -30617.386719 1027690.000000 255 255 255
453808.718750 -30607.140625 1027346.062500 255 255 255
454827.187500 -30602.101562 1027176.937500 255 255 255
455830.781250 -30596.089844 1026975.125000 255 255 255
456741.093750 -30583.857422 1026564.625000 255 255 255
457671.875000 -30573.054688 1026201.937500 255 255 255
458513.562500 -30556.363281 1025641.687500 255 255 255
459404.031250 -30542.992188 1025192.937500 255 255 255
460297.718750 -30529.900391 1024753.437500 255 255 255
461156.468750 -30514.558594 1024238.500000 255 255 255
462108.843750 -30505.470703 1023933.500000 255 255 255
462998.687500 -30492.306641 1023491.625000 255 255 255
463945.750000 -30482.962891 1023178.000000 255 255 255
464889.562500 -30473.451172 1022858.750000 255 255 255
465768.656250 -30459.750000 1022398.812500 255 255 255
466706.687500 -30449.958984 1022070.187500 255 255 255
467557.718750 -30434.550781 1021553.000000 255 255 255
468454.312500 -30422.171875 1021137.500000 255 255 255
469349.875000 -30409.785156 1020721.687500 255 255 255
470204.750000 -30394.826172 1020219.625000 255 255 255
471148.281250 -30385.650391 1019911.625000 255 255 255
471995.062500 -30370.292969 1019396.125000 255 255 255
472874.625000 -30357.111328 1018953.750000 255 255 255
473756.031250 -30344.107422 1018517.250000 255 255 255
474607.062500 -30329.220703 1018017.562500 255 255 255
475555.250000 -30320.597656 1017728.125000 255 255 255
476416.687500 -30306.496094 1017254.750000 255 255 255
477310.375000 -30294.503906 1016852.250000 255 255 255
478210.062500 -30282.947266 1016464.312500 255 255 255
479085.812500 -30269.927734 1016027.312500 255 255 255
480051.875000 -30262.664062 1015783.500000 255 255 255
480933.156250 -30250.097656 1015361.750000 255 255 255
481842.718750 -30239.361328 1015001.375000 255 255 255
482744.125000 -30228.166016 1014625.562500 255 255 255
483603.593750 -30214.398438 1014163.437500 255 255 255
484541.593750 -30205.587891 1013867.750000 255 255 255
485388.375000 -30191.142578 1013382.875000 255 255 255
486278.343750 -30179.441406 1012990.125000 255 255 255
487158.312500 -30167.171875 1012578.312500 255 255 255
487997.281250 -30152.425781 1012083.312500 255 255 255
488926.031250 -30143.279297 1011776.312500 255 255 255
489672.281250 -30122.945312 1011093.750000 255 255 255
490403.281250 -30101.763672 1010382.812500 255 255 255
491121.343750 -30079.882812 1009648.375000 255 255 255
491786.781250 -30054.880859 1008809.187500 255 255 255
492609.406250 -30039.574219 1008295.375000 255 255 255
493583.968750 -30033.580078 1008094.187500 255 255 255
494787.281250 -30041.500000 1008360.000000 255 255 255
496091.906250 -30055.523438 1008830.750000 255 254 255
497142.343750 -30054.119141 1008783.562500 255 254 255
498046.875000 -30043.919922 1008441.250000 254 254 254
499803.468750 -30085.052734 1009821.937500 255 255 255
501561.468750 -30126.093750 1011199.500000 255 255 255
504493.718750 -30237.339844 1014933.500000 252 253 252
507170.375000 -30332.824219 1018138.437500 253 253 253
509088.125000 -30382.607422 1019809.500000 255 255 255
523989.312500 -31205.388672 1047426.625000 187 192 195
1115274.750000 -85029.257812 2959786.250000 139 140 134
1061997.750000 -80739.335938 2810458.500000 139 139 131
1047754.500000 -79432.765625 2764978.000000 144 143 133
993293.875000 -75093.078125 2613917.500000 148 147 135
887494.750000 -66907.273438 2328977.500000 136 137 124
802534.875000 -60333.734375 2100159.000000 128 129 112
649045.375000 -48659.031250 1693774.000000 155 154 133
528266.937500 -39494.566406 1374767.750000 195 194 174
452311.593750 -33722.554688 1173849.625000 239 239 226
414677.937500 -30831.580078 1073217.625000 255 255 255
414464.187500 -30731.042969 1069718.000000 254 252 254
413560.156250 -30580.015625 1064460.875000 255 254 255
412522.500000 -30419.958984 1058889.375000 255 254 255
414256.281250 -30464.585938 1060442.875000 254 254 255
414662.968750 -30411.642578 1058599.875000 255 255 255
415729.718750 -30407.261719 1058447.375000 255 255 255
416502.875000 -30381.490234 1057550.375000 254 255 255
417138.593750 -30345.859375 1056310.125000 254 255 254
417769.750000 -30310.089844 1055065.000000 255 255 253
418391.718750 -30273.843750 1053803.375000 255 255 253
419257.093750 -30255.359375 1053159.875000 255 255 253
420055.000000 -30232.117188 1052350.875000 255 255 253
420999.312500 -30219.509766 1051912.000000 255 255 255
421935.625000 -30206.392578 1051455.375000 255 255 255
422687.781250 -30180.199219 1050543.625000 255 255 255
423492.250000 -30157.869141 1049766.375000 255 255 255
424180.781250 -30127.419922 1048706.375000 255 255 255
425026.406250 -30108.261719 1048039.500000 255 255 255
425845.812500 -30087.347656 1047311.562500 255 255 255
426476.218750 -30053.228516 1046123.875000 255 255 255
427205.937500 -30026.263672 1045185.250000 255 255 255
427803.718750 -29990.191406 1043929.625000 255 255 255
428562.718750 -29965.576172 1043072.812500 255 255 255
429350.468750 -29943.097656 1042290.312500 255 255 255
430027.343750 -29913.019531 1041243.375000 255 255 255
430856.500000 -29893.660156 1040569.500000 255 255 255
431582.656250 -29867.275391 1039651.000000 255 255 255
432423.375000 -29848.931641 1039012.500000 255 255 255
433285.875000 -29832.181641 1038429.437500 255 255 255
434060.531250 -29809.482422 1037639.375000 255 255 255
434949.593750 -29794.738281 1037126.125000 255 255 255
435737.500000 -29773.156250 1036374.875000 255 255 255
436601.218750 -29756.849609 1035807.187500 255 255 255
437476.187500 -29741.388672 1035269.062500 255 255 255
438288.750000 -29721.777344 1034586.375000 255 255 255
439208.250000 -29709.494141 1034158.812500 255 255 255
440044.250000 -29691.638672 1033537.312500 255 255 255
440947.937500 -29678.429688 1033077.500000 255 255 255
441857.593750 -29665.685547 1032633.937500 255 255 255
442701.343750 -29648.591797 1032038.875000 255 255 255
443629.718750 -29637.236328 1031643.625000 255 255 255
444489.968750 -29621.396484 1031092.187500 255 255 255
445417.875000 -29610.132812 1030700.125000 255 255 255
446355.437500 -29599.564453 1030332.250000 255 255 255
447233.031250 -29585.078125 1029828.062500 255 255 255
448182.406250 -29575.404297 1029491.312500 255 255 255
449094.562500 -29563.324219 1029070.750000 255 255 255
450080.437500 -29556.144531 1028820.875000 255 255 255
451075.218750 -29549.583984 1028592.500000 255 255 255
452003.843750 -29538.732422 1028214.750000 255 255 255
452973.062500 -29530.578125 1027930.937500 255 255 255
453911.843750 -29520.484375 1027579.562500 255 255 255
454927.562500 -29515.431641 1027403.687500 255 255 255
455928.750000 -29509.460938 1027195.875000 255 255 255
456836.343750 -29497.476562 1026778.687500 255 255 255
457765.656250 -29486.947266 1026412.187500 255 255 255
458605.218750 -29470.701172 1025846.625000 255 255 255
459493.968750 -29457.687500 1025393.687500 255 255 255
460386.156250 -29444.951172 1024950.375000 255 255 255
461242.281250 -29429.976562 1024429.125000 255 255 255
462192.843750 -29421.083984 1024119.562500 255 255 255
463080.000000 -29408.207031 1023671.312500 255 255 255
464025.375000 -29399.078125 1023353.562500 255 255 255
464967.156250 -29389.767578 1023029.437500 255 255 255
465843.062500 -29376.343750 1022562.187500 255 255 255
466778.625000 -29366.734375 1022227.750000 255 255 255
467624.906250 -29351.570312 1021699.812500 255 255 255
468517.343750 -29339.363281 1021274.937500 255 255 255
469408.562500 -29327.136719 1020849.312500 255 255 255
470258.437500 -29312.392578 1020336.062500 255 255 255
471198.531250 -29303.322266 1020020.375000 255 255 255
472039.875000 -29288.169922 1019492.937500 255 255 255
472914.406250 -29275.142578 1019039.437500 255 255 255
473791.218750 -29262.312500 1018592.875000 255 255 255
474637.500000 -29247.660156 1018082.812500 255 255 255
475583.812500 -29239.226562 1017789.250000 255 255 255
476442.593750 -29225.458984 1017310.062500 255 255 255
477334.500000 -29213.783203 1016903.625000 255 255 255
478232.937500 -29202.560547 1016512.937500 255 255 255
479107.156250 -29189.912109 1016072.687500 255 255 255
480072.656250 -29182.867188 1015827.500000 255 255 255
480952.500000 -29170.660156 1015402.562500 255 255 255
481860.250000 -29160.197266 1015038.312500 255 255 255
482760.031250 -29149.300781 1014659.000000 255 255 255
483617.125000 -29135.878906 1014191.812500 255 255 255
484553.375000 -29127.277344 1013892.375000 255 255 255
485397.875000 -29113.208984 1013402.687500 255 255 255
486286.437500 -29101.839844 1013006.937500 255 255 255
487165.125000 -29089.933594 1012592.500000 255 255 255
488001.312500 -29075.544922 1012091.687500 255 255 255
488927.937500 -29066.597656 1011780.250000 255 255 255
489675.343750 -29047.058594 1011100.062500 255 255 255
490410.718750 -29026.892578 1010398.125000 255 255 255
491134.437500 -29006.126953 1009675.312500 255 255 255
491805.437500 -28982.343750 1008847.437500 255 255 255
492631.312500 -28967.773438 1008340.250000 255 255 255
493602.812500 -28961.808594 1008132.625000 255 255 255
494795.031250 -28968.794922 1008375.750000 255 254 254
496090.468750 -28981.779297 1008827.750000 255 253 254
497156.687500 -28981.347656 1008812.750000 255 254 255
498089.093750 -28973.130859 1008526.750000 255 255 255
499809.593750 -29010.693359 1009834.250000 255 255 255
501492.312500 -29045.908203 1011060.062500 255 255 255
504304.562500 -29146.251953 1014552.937500 251 252 253
506849.687500 -29230.763672 1017494.687500 250 252 253
508677.750000 -29273.648438 1018987.437500 255 255 255
523293.750000 -30050.710938 1046036.250000 199 204 205
1098206.375000 -80626.171875 2914489.000000 136 137 132
1047081.625000 -76656.273438 2770984.500000 138 138 132
1033569.812500 -75454.570312 2727545.250000 145 144 133
982675.375000 -71538.164062 2585974.250000 144 144 130
883070.562500 -64107.453125 2317367.500000 132 132 115
802477.000000 -58094.425781 2100007.750000 131 130 111
651886.062500 -47061.492188 1701187.125000 166 165 144
531830.187500 -38287.984375 1384040.750000 209 207 188
455434.375000 -32697.468750 1181953.875000 242 242 228
416770.500000 -29839.216797 1078633.250000 255 255 251
415348.718750 -29655.740234 1072001.000000 255 254 252
413502.968750 -29443.080078 1064313.625000 255 254 255
412332.718750 -29279.546875 1058402.250000 255 252 255
414237.437500 -29334.664062 1060394.625000 255 253 255
414673.656250 -29285.769531 1058627.250000 255 255 255
415790.031250 -29285.046875 1058601.000000 255 255 255
416621.187500 -29264.291016 1057850.750000 255 255 255
417291.968750 -29232.414062 1056698.500000 255 255 253
417949.406250 -29199.773438 1055518.625000 255 255 253
418597.312500 -29166.648438 1054321.125000 255 255 253
419472.062500 -29149.460938 1053699.875000 255 255 253
420283.687500 -29127.992188 1052923.750000 255 255 254
421242.093750 -29116.781250 1052518.625000 255 255 255
422186.968750 -29104.699219 1052081.750000 255 255 255
422941.781250 -29079.611328 1051174.875000 255 255 255
423740.937500 -29057.697266 1050382.750000 255 255 255
424421.625000 -29027.794922 1049301.875000 255 255 255
425260.656250 -29008.851562 1048617.125000 255 255 255
426074.562500 -28988.298828 1047874.125000 255 255 255
426702.906250 -28955.259766 1046679.875000 255 255 255
427434.875000 -28929.408203 1045745.375000 255 255 255
428033.218750 -28894.669922 1044489.625000 255 255 255
428790.593750 -28870.820312 1043627.500000 255 255 255
429576.968750 -28849.039062 1042840.187500 255 255 255
430253.656250 -28820.023438 1041791.312500 255 255 255
431083.937500 -28801.417969 1041118.812500 255 255 255
431812.093750 -28776.105469 1040203.750000 255 255 255
432655.375000 -28758.572266 1039569.937500 255 255 255
433519.750000 -28742.529297 1038990.000000 255 255 255
434294.562500 -28720.642578 1038198.875000 255 255 255
435182.687500 -28706.341797 1037681.937500 255 255 255
435968.531250 -28685.382812 1036924.312500 255 255 255
436830.781250 -28669.546875 1036351.875000 255 255 255
437704.000000 -28654.507812 1035808.187500 255 255 255
438513.281250 -28635.367188 1035116.312500 255 255 255
439430.250000 -28623.339844 1034681.562500 255 255 255
440261.000000 -28605.769531 1034046.437500 255 255 255
441160.375000 -28592.734375 1033575.250000 255 255 255
442065.281250 -28580.121094 1033119.312500 255 255 255
442903.843750 -28563.292969 1032510.937500 255 255 255
443829.468750 -28552.148438 1032108.125000 255 255 255
444685.031250 -28536.560547 1031544.687500 255 255 255
445608.750000 -28525.416016 1031141.812500 255 255 255
446542.500000 -28514.964844 1030764.000000 255 255 255
447415.968750 -28500.726562 1030249.312500 255 255 255
448363.375000 -28491.255859 1029907.000000 255 255 255
449272.156250 -28479.382812 1029477.812500 255 255 255
450255.531250 -28472.283203 1029221.125000 255 255 255
451247.531250 -28465.763672 1028985.437500 255 255 255
452172.156250 -28455.035156 1028597.625000 255 255 255
453138.562500 -28446.980469 1028306.500000 255 255 255
454072.593750 -28436.937500 1027943.437500 255 255 255
455084.125000 -28431.785156 1027757.187500 255 255 255
456081.281250 -28425.761719 1027539.500000 255 255 255
456984.593750 -28413.931641 1027111.875000 255 255 255
457911.875000 -28403.646484 1026740.062500 255 255 255
458747.968750 -28387.767578 1026166.000000 255 255 255
459634.062500 -28375.046875 1025706.250000 255 255 255
460523.250000 -28362.580078 1025255.562500 255 255 255
461375.531250 -28347.904297 1024725.125000 255 255 255
462323.218750 -28339.146484 1024408.437500 255 255 255
463206.000000 -28326.460938 1023949.875000 255 255 255
464148.375000 -28317.466797 1023624.812500 255 255 255
465086.562500 -28308.263672 1023292.125000 255 255 255
465956.906250 -28294.984375 1022812.062500 255 255 255
466888.656250 -28285.484375 1022468.687500 255 255 255
467727.968750 -28270.443359 1021925.000000 255 255 255
468614.218750 -28258.300781 1021486.062500 255 255 255
469498.968750 -28246.125000 1021045.937500 255 255 255
470341.031250 -28231.445312 1020515.250000 255 255 255
471276.093750 -28222.400391 1020188.312500 255 255 255
472109.031250 -28207.294922 1019642.312500 255 255 255
472976.031250 -28194.291016 1019172.250000 255 255 255
473845.781250 -28181.509766 1018710.187500 255 255 255
474684.875000 -28166.964844 1018184.437500 255 255 255
475627.781250 -28158.636719 1017883.375000 255 255 255
476482.156250 -28145.113281 1017394.500000 255 255 255
477370.906250 -28133.677734 1016981.187500 255 255 255
478266.843750 -28122.718750 1016585.000000 255 255 255
479137.781250 -28110.339844 1016137.562500 255 255 255
480101.406250 -28103.445312 1015888.312500 255 255 255
480978.375000 -28091.519531 1015457.187500 255 255 255
481884.218750 -28081.328125 1015088.875000 255 255 255
482781.781250 -28070.701172 1014704.687500 255 255 255
483635.343750 -28057.570312 1014230.062500 255 255 255
484569.187500 -28049.144531 1013925.437500 255 255 255
485410.656250 -28035.421875 1013429.375000 255 255 255
486297.031250 -28024.347656 1013029.062500 255 255 255
487174.281250 -28012.794922 1012611.500000 255 255 255
488007.687500 -27998.781250 1012104.937500 255 255 255
488932.031250 -27990.033203 1011788.687500 255 255 255
489682.593750 -27971.398438 1011115.062500 255 255 255
490425.531250 -27952.410156 1010428.687500 255 255 255
491158.531250 -27932.937500 1009724.812500 255 255 255
491839.156250 -27910.582031 1008916.687500 255 255 255
492671.156250 -27896.892578 1008421.812500 255 255 255
493640.531250 -27891.023438 1008209.687500 255 255 255
494815.406250 -27896.769531 1008417.312500 254 253 254
496100.906250 -27908.708984 1008849.000000 254 253 253
497203.906250 -27910.355469 1008908.500000 255 254 255
498193.656250 -27905.652344 1008738.437500 255 255 255
499876.125000 -27939.685547 1009968.687500 255 255 255
501453.906250 -27967.734375 1010982.625000 255 255 255
504092.156250 -28054.681641 1014125.625000 250 251 254
506467.937500 -28126.683594 1016728.375000 247 251 251
508192.500000 -28162.287109 1018015.375000 255 255 255
522321.187500 -28883.671875 1044092.125000 210 214 215
1161108.250000 -82430.382812 3098927.250000 136 137 138
1086980.625000 -76731.945312 2884697.500000 136 137 133
1037854.562500 -73057.710938 2746566.500000 141 141 134
1024056.875000 -71883.984375 2702441.000000 141 142 131
974795.187500 -68234.414062 2565237.000000 145 145 130
879486.375000 -61390.980469 2307961.750000 145 144 125
802277.687500 -55845.597656 2099486.000000 141 140 119
654724.187500 -45447.996094 1708593.625000 179 178 158
536054.062500 -37107.390625 1395033.000000 224 223 202
459456.781250 -31717.236328 1192392.875000 248 247 230
419469.437500 -28877.070312 1085618.375000 255 255 246
416404.875000 -28587.359375 1074726.875000 255 255 252
413321.406250 -28297.939453 1063846.250000 255 254 255
412026.250000 -28132.205078 1057615.500000 255 254 255
414198.750000 -28203.492188 1060295.500000 254 253 255
414674.343750 -28159.160156 1058628.875000 254 254 255
415823.937500 -28160.712891 1058687.250000 255 255 255
416700.843750 -28143.841797 1058053.000000 255 255 255
417407.406250 -28115.585938 1056990.750000 255 255 253
418094.156250 -28086.150391 1055884.125000 255 255 253
418765.906250 -28055.871094 1054745.875000 255 255 254
419645.593750 -28039.644531 1054135.750000 255 255 254
420467.343750 -28019.644531 1053383.875000 255 255 255
421437.906250 -28009.640625 1053007.750000 255 255 255
422390.875000 -27998.523438 1052589.875000 255 255 255
423147.843750 -27974.507812 1051687.000000 255 255 255
423942.531250 -27953.105469 1050882.375000 255 255 255
424617.562500 -27923.949219 1049786.250000 255 255 255
425452.375000 -27905.423828 1049089.875000 255 255 255
426263.562500 -27885.451172 1048338.937500 255 255 255
426890.656250 -27853.570312 1047140.437500 255 255 255
427624.000000 -27828.769531 1046208.062500 255 255 255
428222.562500 -27795.349609 1044951.625000 255 255 255
428978.812500 -27772.312500 1044085.562500 255 255 255
429764.093750 -27751.267578 1043294.437500 255 255 255
430440.718750 -27723.332031 1042244.187500 255 255 255
431272.000000 -27705.478516 1041573.000000 255 255 255
432001.531250 -27681.195312 1040660.062500 255 255 255
432846.375000 -27664.406250 1040028.875000 255 255 255
433711.906250 -27649.021484 1039450.500000 255 255 255
434486.843750 -27627.953125 1038658.437500 255 255 255
435374.468750 -27614.140625 1038139.187500 255 255 255
436158.562500 -27593.849609 1037376.312500 255 255 255
437019.375000 -27578.498047 1036799.250000 255 255 255
437890.250000 -27563.861328 1036248.937500 255 255 255
438696.406250 -27545.232422 1035548.625000 255 255 255
439610.968750 -27533.486328 1035107.062500 255 255 255
440437.468750 -27516.298828 1034460.875000 255 255 255
441332.718750 -27503.480469 1033978.937500 255 255 255
442233.593750 -27491.074219 1033512.625000 255 255 255
443067.500000 -27474.580078 1032892.500000 255 255 255
443990.781250 -27463.693359 1032483.187500 255 255 255
444842.093750 -27448.421875 1031909.062500 255 255 255
445762.375000 -27437.468750 1031497.312500 255 255 255
446693.000000 -27427.205078 1031111.437500 255 255 255
447562.906250 -27413.271484 1030587.625000 255 255 255
448508.593750 -27404.039062 1030240.562500 255 255 255
449414.593750 -27392.429688 1029804.125000 255 255 255
450395.593750 -27385.441406 1029541.312500 255 255 255
451385.125000 -27379.000000 1029299.187500 255 255 255
452306.375000 -27368.458984 1028902.937500 255 255 255
453270.437500 -27360.554688 1028605.750000 255 255 255
454200.406250 -27350.634766 1028232.875000 255 255 255
455208.531250 -27345.457031 1028038.187500 255 255 255
456202.250000 -27339.441406 1027812.000000 255 255 255
457102.000000 -27327.837891 1027375.750000 255 255 255
458027.781250 -27317.839844 1026999.937500 255 255 255
458860.843750 -27302.373047 1026418.500000 255 255 255
459744.562500 -27289.988281 1025952.812500 255 255 255
460631.156250 -27277.832031 1025495.812500 255 255 255
461479.812500 -27263.490234 1024956.687500 255 255 255
462425.281250 -27254.923828 1024634.625000 255 255 255
463304.250000 -27242.486328 1024167.062500 255 255 255
464243.875000 -27233.666016 1023835.437500 255 255 255
465178.625000 -27224.601562 1023494.687500 255 255 255
466044.281250 -27211.544922 1023003.875000 255 255 255
466972.468750 -27202.193359 1022652.312500 255 255 255
467805.937500 -27187.380859 1022095.375000 255 255 255
468687.500000 -27175.423828 1021645.875000 255 255 255
469567.281250 -27163.419922 1021194.562500 255 255 255
470402.875000 -27148.917969 1020649.437500 255 255 255
471334.000000 -27139.986328 1020313.625000 255 255 255
472159.875000 -27125.050781 1019752.125000 255 255 255
473020.781250 -27112.189453 1019268.625000 255 255 255
473884.843750 -27099.570312 1018794.187500 255 255 255
474717.843750 -27085.232422 1018255.187500 255 255 255
475657.656250 -27077.042969 1017947.312500 255 255 255
476507.843750 -27063.798828 1017449.375000 255 255 255
477393.281250 -27052.613281 1017028.875000 255 255 255
478286.437500 -27041.914062 1016626.625000 255 255 255
479153.750000 -27029.806641 1016171.500000 255 255 255
480115.156250 -27023.046875 1015917.375000 255 255 255
480989.406250 -27011.425781 1015480.500000 255 255 255
481893.562500 -27001.533203 1015108.500000 255 255 255
482789.718750 -26991.234375 1014721.375000 255 255 255
483641.125000 -26978.488281 1014242.125000 255 255 255
484573.000000 -26970.275391 1013933.437500 255 255 255
485412.656250 -26956.980469 1013433.562500 255 255 255
486297.906250 -26946.267578 1013030.812500 255 255 255
487174.843750 -26935.144531 1012612.687500 255 255 255
488007.593750 -26921.630859 1012104.687500 255 255 255
488931.625000 -26913.205078 1011787.875000 255 255 255
489686.687500 -26895.533203 1011123.500000 255 255 255
490436.625000 -26877.658203 1010451.500000 255 255 255
491178.093750 -26859.398438 1009765.062500 255 255 255
491867.875000 -26838.398438 1008975.562500 255 255 255
492705.593750 -26825.542969 1008492.312500 255 255 255
493675.281250 -26819.916016 1008280.687500 255 255 255
494836.968750 -26824.718750 1008461.250000 254 255 255
496117.500000 -26835.929688 1008882.750000 254 255 255
497257.468750 -26839.505859 1009017.187500 255 255 255
498301.281250 -26837.886719 1008956.375000 254 254 254
499965.500000 -26869.619141 1010149.250000 254 254 254
501469.468750 -26892.621094 1011014.000000 255 255 255
503977.937500 -26969.277344 1013895.875000 252 254 255
506231.531250 -27031.994141 1016253.750000 247 250 250
507882.156250 -27062.316406 1017393.687500 255 255 255
521621.437500 -27735.279297 1042693.375000 217 222 223
1244937.500000 -85820.562500 3360847.750000 135 137 136
1226570.000000 -84312.148438 3301776.250000 138 139 139
1139860.125000 -77684.210938 3042217.500000 136 138 136
1072279.250000 -72665.601562 2845682.000000 143 141 139
1025699.625000 -69313.250000 2714399.500000 144 143 137
1011098.250000 -68134.648438 2668243.750000 143 141 131
961878.875000 -64636.378906 2531247.000000 150 147 133
868506.500000 -58198.941406 2279148.250000 144 142 126
793111.062500 -52998.648438 2075497.875000 136 133 114
651097.750000 -43387.949219 1699130.125000 179 178 155
536890.500000 -35678.296875 1397209.750000 235 235 213
462056.125000 -30620.476562 1199138.750000 255 255 240
421607.406250 -27862.980469 1091151.500000 254 254 243
417174.468750 -27494.289062 1076713.125000 255 255 249
413104.250000 -27151.457031 1063287.375000 255 254 255
411766.875000 -26989.625000 1056949.750000 255 254 255
414181.875000 -27073.958984 1060252.375000 255 255 255
414710.406250 -27034.853516 1058721.000000 255 255 255
415879.281250 -27037.591797 1058828.250000 254 254 255
416791.156250 -27023.652344 1058282.375000 255 255 255
417533.531250 -26998.828125 1057310.125000 255 255 253
418249.781250 -26972.451172 1056277.250000 255 255 254
418942.500000 -26944.703125 1055190.625000 255 255 255
419823.718750 -26929.193359 1054583.250000 255 255 255
420650.562500 -26910.289062 1053842.875000 255 255 255
421629.781250 -26901.208984 1053487.250000 255 255 255
422587.250000 -26890.789062 1053079.250000 255 255 255
423341.812500 -26867.548828 1052169.125000 255 255 255
424128.687500 -26846.478516 1051344.000000 255 255 255
424794.656250 -26817.880859 1050224.125000 255 255 255
425624.062500 -26799.728516 1049513.250000 255 255 255
426432.031250 -26780.324219 1048753.250000 255 255 255
427057.531250 -26749.593750 1047549.812500 255 255 255
427792.656250 -26725.867188 1046620.687500 255 255 255
428392.093750 -26693.812500 1045365.375000 255 255 255
429147.500000 -26671.617188 1044496.187500 255 255 255
429932.343750 -26651.361328 1043702.875000 255 255 255
430609.906250 -26624.574219 1042653.937500 255 255 255
431442.906250 -26607.511719 1041985.750000 255 255 255
432175.093750 -26584.337891 1041078.187500 255 255 255
433022.343750 -26568.339844 1040451.687500 255 255 255
433889.875000 -26553.666016 1039877.062500 255 255 255
434666.187500 -26533.498047 1039087.250000 255 255 255
435553.687500 -26520.201172 1038566.500000 255 255 255
436337.093750 -26500.650391 1037800.937500 255 255 255
437197.031250 -26485.835938 1037220.750000 255 255 255
438066.312500 -26471.660156 1036665.562500 255 255 255
438870.125000 -26453.609375 1035958.687500 255 255 255
439782.937500 -26442.201172 1035511.937500 255 255 255
440605.781250 -26425.457031 1034856.187500 255 255 255
441497.875000 -26412.937500 1034365.937500 255 255 255
442395.406250 -26400.804688 1033890.750000 255 255 255
443225.375000 -26384.710938 1033260.500000 255 255 255
444146.343750 -26374.099609 1032844.937500 255 255 255
444994.156250 -26359.208984 1032261.812500 255 255 255
445911.312500 -26348.486328 1031841.937500 255 255 255
446839.156250 -26338.449219 1031448.875000 255 255 255
447705.875000 -26324.865234 1030916.875000 255 255 255
448650.000000 -26315.886719 1030565.312500 255 255 255
449553.250000 -26304.564453 1030121.875000 255 255 255
450532.125000 -26297.707031 1029853.375000 255 255 255
451519.468750 -26291.378906 1029605.500000 255 255 255
452437.437500 -26281.052734 1029201.125000 255 255 255
453399.500000 -26273.328125 1028898.687500 255 255 255
454325.468750 -26263.556641 1028515.937500 255 255 255
455330.218750 -26258.373047 1028313.000000 255 255 255
456320.906250 -26252.408203 1028079.375000 255 255 255
457217.250000 -26241.054688 1027634.812500 255 255 255
458141.593750 -26231.359375 1027255.125000 255 255 255
458971.968750 -26216.343750 1026667.062500 255 255 255
459853.281250 -26204.300781 1026195.437500 255 255 255
460737.687500 -26192.492188 1025733.000000 255 255 255
461582.968750 -26178.519531 1025185.812500 255 255 255
462526.625000 -26170.179688 1024859.187500 255 255 255
463402.000000 -26158.023438 1024383.187500 255 255 255
464338.750000 -26149.380859 1024044.687500 255 255 255
465270.375000 -26140.492188 1023696.562500 255 255 255
466131.562500 -26127.695312 1023195.437500 255 255 255
467056.531250 -26118.525391 1022836.312500 255 255 255
467884.531250 -26103.988281 1022267.000000 255 255 255
468762.062500 -26092.275391 1021808.375000 255 255 255
469637.093750 -26080.478516 1021346.375000 255 255 255
470467.093750 -26066.240234 1020788.812500 255 255 255
471394.656250 -26057.458984 1020444.937500 255 255 255
472214.218750 -26042.765625 1019869.437500 255 255 255
473069.781250 -26030.119141 1019374.250000 255 255 255
473928.812500 -26017.720703 1018888.687500 255 255 255
474756.468750 -26003.658203 1018338.000000 255 255 255
475693.750000 -25995.654297 1018024.562500 255 255 255
476540.125000 -25982.726562 1017518.312500 255 255 255
477422.687500 -25971.828125 1017091.500000 255 255 255
478313.562500 -25961.429688 1016684.312500 255 255 255
479177.531250 -25949.621094 1016221.875000 255 255 255
480136.781250 -25943.015625 1015963.187500 255 255 255
481008.625000 -25931.726562 1015521.062500 255 255 255
481911.687500 -25922.166016 1015146.687500 255 255 255
482806.718750 -25912.218750 1014757.062500 255 255 255
483655.812500 -25899.855469 1014272.937500 255 255 255
484585.781250 -25891.867188 1013960.125000 255 255 255
485423.218750 -25878.984375 1013455.562500 255 255 255
486306.968750 -25868.619141 1013049.750000 255 255 255
487183.000000 -25857.892578 1012629.625000 255 255 255
488014.656250 -25844.861328 1012119.312500 255 255 255
488937.750000 -25836.720703 1011800.500000 255 255 255
489696.375000 -25819.945312 1011143.500000 255 255 255
490452.375000 -25803.101562 1010483.937500 255 255 255
491201.500000 -25785.972656 1009813.125000 255 255 255
491899.906250 -25766.261719 1009041.250000 255 255 255
492743.312500 -25754.214844 1008569.500000 255 255 255
493713.781250 -25748.847656 1008359.312500 255 255 255
494861.906250 -25752.750000 1008512.062500 255 255 255
496139.125000 -25763.337891 1008926.750000 255 255 255
497322.031250 -25768.992188 1009148.187500 255 255 255
498426.312500 -25770.558594 1009209.500000 253 254 253
500080.656250 -25800.498047 1010381.937500 254 254 254
501509.750000 -25818.710938 1011095.187500 254 255 255
503896.968750 -25886.066406 1013733.000000 252 255 255
506080.687500 -25942.703125 1015950.875000 247 250 250
507722.156250 -25971.361328 1017073.187500 255 255 255
521040.562500 -26595.931641 1041532.250000 220 225 227
1387089.875000 -98725.898438 4034382.750000 136 138 131
1385788.625000 -98328.914062 4018160.250000 134 138 130
1217791.000000 -80450.375000 3287562.750000 140 143 137
1197715.500000 -78897.453125 3224103.500000 136 139 133
1137849.875000 -74526.890625 3045502.750000 136 137 132
1109778.000000 -72481.773438 2961930.250000 135 136 131
1074117.500000 -69954.015625 2858634.500000 140 140 135
1051553.000000 -68291.023438 2790677.250000 141 140 135
1008540.875000 -65313.222656 2668991.000000 141 139 133
993709.312500 -64171.988281 2622355.000000 149 145 136
944231.250000 -60806.007812 2484806.000000 152 148 136
851362.937500 -54672.414062 2234160.000000 141 137 123
776493.125000 -49725.585938 2032010.250000 140 137 119
641509.937500 -40967.343750 1674109.250000 173 172 149
533808.312500 -33995.015625 1389188.625000 233 233 207
462372.312500 -29364.361328 1199959.375000 255 255 241
422584.187500 -26763.572266 1093679.500000 254 254 241
417480.031250 -26367.685547 1077501.750000 255 255 246
412961.906250 -26010.876953 1062921.000000 254 253 250
411664.000000 -25858.292969 1056685.750000 254 253 254
414211.781250 -25947.445312 1060328.875000 255 255 255
414799.093750 -25913.638672 1058947.375000 255 255 255
415986.562500 -25917.406250 1059101.375000 254 254 254
416932.687500 -25906.158203 1058641.750000 255 255 253
417711.312500 -25884.589844 1057760.375000 255 255 253
418456.031250 -25861.042969 1056798.125000 255 255 254
419168.562500 -25835.638672 1055760.000000 255 255 255
420050.281250 -25820.769531 1055152.375000 255 255 255
420880.156250 -25802.802734 1054418.125000 255 255 255
421866.937500 -25794.523438 1054079.875000 255 255 255
422826.500000 -25784.626953 1053675.500000 255 255 255
423572.406250 -25761.792969 1052742.250000 255 255 255
424345.187500 -25740.705078 1051880.625000 255 255 255
424995.125000 -25712.298828 1050719.750000 255 255 255
425814.468750 -25694.261719 1049982.750000 255 255 255
426616.500000 -25675.279297 1049207.000000 255 255 255
427239.062500 -25645.621094 1047995.000000 255 255 255
427976.656250 -25623.005859 1047070.875000 255 255 255
428577.718750 -25592.355469 1045818.312500 255 255 255
429332.156250 -25570.998047 1044945.562500 255 255 255
430116.781250 -25551.542969 1044150.562500 255 255 255
430795.812500 -25525.933594 1043104.062500 255 255 255
431631.562500 -25509.716797 1042441.375000 255 255 255
432368.000000 -25487.730469 1041542.875000 255 255 255
433219.593750 -25472.626953 1040925.625000 255 255 255
434090.968750 -25458.759766 1040359.000000 255 255 255
434870.218750 -25439.572266 1039574.937500 255 255 255
435758.687500 -25426.857422 1039055.375000 255 255 255
436542.406250 -25408.111328 1038289.312500 255 255 255
437402.812500 -25393.910156 1037708.937500 255 255 255
438271.593750 -25380.265625 1037151.375000 255 255 255
439073.906250 -25362.849609 1036439.687500 255 255 255
439985.406250 -25351.812500 1035988.687500 255 255 255
440804.968750 -25335.548828 1035324.000000 255 255 255
441694.187500 -25323.357422 1034825.875000 255 255 255
442588.750000 -25311.533203 1034342.625000 255 255 255
443415.000000 -25295.869141 1033702.562500 255 255 255
444333.968750 -25285.560547 1033281.312500 255 255 255
445178.000000 -25271.046875 1032688.250000 255 255 255
446092.156250 -25260.576172 1032260.375000 255 255 255
447017.125000 -25250.769531 1031859.625000 255 255 255
447880.343750 -25237.531250 1031318.625000 255 255 255
448822.750000 -25228.808594 1030962.187500 255 255 255
449723.000000 -25217.763672 1030510.812500 255 255 255
450699.968750 -25211.064453 1030237.062500 255 255 255
451685.312500 -25204.865234 1029983.750000 255 255 255
452599.937500 -25194.759766 1029570.750000 255 255 255
453559.343750 -25187.187500 1029261.375000 255 255 255
454481.156250 -25177.572266 1028868.437500 255 255 255
455482.062500 -25172.373047 1028655.937500 255 255 255
456469.250000 -25166.441406 1028413.625000 255 255 255
457362.187500 -25155.355469 1027960.562500 255 255 255
458285.125000 -25145.968750 1027576.937500 255 255 255
459112.593750 -25131.400391 1026981.687500 255 255 255
459991.906250 -25119.732422 1026504.812500 255 255 255
460874.000000 -25108.269531 1026036.437500 255 255 255
461716.187500 -25094.695312 1025481.687500 255 255 255
462657.500000 -25086.558594 1025149.187500 255 255 255
463529.125000 -25074.689453 1024664.125000 255 255 255
464462.968750 -25066.234375 1024318.687500 255 255 255
465391.406250 -25057.527344 1023962.812500 255 255 255
466247.750000 -25044.990234 1023450.500000 255 255 255
467169.312500 -25036.003906 1023083.312500 255 255 255
467991.312500 -25021.738281 1022500.312500 255 255 255
468863.718750 -25010.226562 1022029.937500 255 255 255
469733.468750 -24998.626953 1021555.937500 255 255 255
470556.875000 -24984.621094 1020983.562500 255 255 255
471480.187500 -24975.970703 1020630.125000 255 255 255
472293.062500 -24961.525391 1020039.750000 255 255 255
473142.750000 -24949.085938 1019531.437500 255 255 255
473996.468750 -24936.916016 1019034.125000 255 255 255
474818.687500 -24923.146484 1018471.437500 255 255 255
475753.031250 -24915.314453 1018151.375000 255 255 255
476596.031250 -24902.742188 1017637.687500 255 255 255
477476.281250 -24892.171875 1017205.687500 255 255 255
478365.156250 -24882.095703 1016793.937500 255 255 255
479226.625000 -24870.644531 1016326.000000 255 255 255
480184.625000 -24864.242188 1016064.375000 255 255 255
481054.156250 -24853.298828 1015617.125000 255 255 255
481956.000000 -24844.070312 1015240.062500 255 255 255
482849.312500 -24834.443359 1014846.687500 255 255 255
483695.000000 -24822.414062 1014355.125000 255 255 255
484621.875000 -24814.597656 1014035.687500 255 255 255
485455.125000 -24802.033203 1013522.187500 255 255 255
486336.000000 -24791.951172 1013110.187500 255 255 255
487209.375000 -24781.531250 1012684.437500 255 255 255
488036.343750 -24768.802734 1012164.312500 255 255 255
488955.718750 -24760.810547 1011837.687500 255 255 255
489714.781250 -24744.753906 1011181.500000 255 255 255
490475.968750 -24728.873047 1010532.562500 255 255 255
491232.437500 -24712.824219 1009876.812500 255 255 255
491938.750000 -24694.328125 1009120.937500 255 255 255
492787.937500 -24683.070312 1008660.812500 255 255 255
493756.500000 -24677.826172 1008446.562500 255 255 255
494885.093750 -24680.585938 1008559.312500 255 255 254
496156.375000 -24690.435547 1008961.812500 255 255 253
497393.375000 -24698.539062 1009293.000000 255 255 253
498575.750000 -24703.900391 1009512.125000 254 255 255
500213.437500 -24731.751953 1010650.187500 254 255 255
501543.875000 -24744.324219 1011164.000000 254 255 255
503765.562500 -24800.720703 1013468.625000 253 255 255
505850.593750 -24850.162109 1015489.000000 246 249 249
507474.625000 -24876.794922 1016577.312500 255 255 255
520153.875000 -25444.097656 1039759.812500 229 234 235
1397109.875000 -96914.367188 4140424.500000 138 136 128
1401186.250000 -96891.539062 4139449.250000 141 138 129
1404557.875000 -96820.281250 4136404.750000 140 137 128
1405147.250000 -96558.265625 4125210.750000 140 137 128
1405794.750000 -96301.867188 4114257.000000 140 140 130
1404346.625000 -95903.953125 4097257.000000 142 142 133
1400170.750000 -95322.804688 4072428.750000 140 140 132
1397518.375000 -94848.632812 4052171.250000 137 137 131
1390982.250000 -94114.609375 4020811.750000 139 139 134
1387583.250000 -93596.687500 3998684.750000 142 141 135
1382763.000000 -92986.367188 3972610.250000 140 139 133
1373513.750000 -92082.828125 3934009.000000 138 137 131
1367421.375000 -91395.789062 3904656.750000 137 136 132
1303979.875000 -84336.218750 3603054.500000 139 137 135
1243808.125000 -79049.789062 3377205.000000 137 140 132
1192631.375000 -75361.726562 3219641.500000 136 140 131
1172057.625000 -73849.507812 3155035.750000 137 140 131
1086314.500000 -67863.703125 2899307.250000 140 139 134
1054664.750000 -65699.882812 2806863.500000 138 137 132
1036144.250000 -64363.847656 2749784.750000 141 139 133
995866.625000 -61687.628906 2635450.000000 143 140 131
981184.250000 -60607.449219 2589302.000000 141 138 128
930807.375000 -57334.660156 2449480.250000 146 142 131
836331.187500 -51371.367188 2194713.250000 155 153 137
760245.875000 -46567.792969 1989492.750000 163 162 142
630429.375000 -38508.816406 1645193.000000 185 185 159
528298.375000 -32180.921875 1374849.500000 227 227 198
460353.218750 -27964.638672 1194719.375000 253 255 229
422014.687500 -25565.113281 1092205.625000 253 254 236
417189.531250 -25203.392578 1076752.000000 255 255 243
412924.843750 -24877.417969 1062825.500000 254 254 247
411736.750000 -24738.074219 1056872.500000 255 254 252
414266.593750 -24822.263672 1060469.250000 255 255 254
414892.718750 -24792.236328 1059186.375000 255 255 253
416083.093750 -24796.000000 1059347.125000 255 255 253
417041.406250 -24785.947266 1058917.750000 255 255 253
417838.562500 -24766.398438 1058082.500000 255 255 253
418597.250000 -24744.681641 1057154.750000 255 255 254
419317.906250 -24720.837891 1056136.125000 255 255 255
420197.531250 -24706.470703 1055522.250000 255 255 255
421025.281250 -24689.136719 1054781.750000 255 255 255
422013.937500 -24681.302734 1054447.000000 255 255 255
422971.468750 -24671.699219 1054036.750000 255 255 255
423706.687500 -24649.210938 1053076.000000 255 255 255
424466.843750 -24628.289062 1052182.125000 255 255 255
425102.281250 -24600.259766 1050984.625000 255 255 255
425912.781250 -24582.480469 1050225.125000 255 255 255
426710.031250 -24564.033203 1049437.000000 255 255 255
427329.562500 -24535.478516 1048217.062500 255 255 255
428069.312500 -24513.955078 1047297.562500 255 255 255
428671.718750 -24484.699219 1046047.687500 255 255 255
429425.781250 -24464.236328 1045173.437500 255 255 255
430210.500000 -24445.621094 1044378.125000 255 255 255
430891.437500 -24421.218750 1043335.562500 255 255 255
431729.281250 -24405.812500 1042677.437500 255 255 255
432469.718750 -24384.992188 1041787.937500 255 255 255
433325.031250 -24370.738281 1041179.000000 255 255 255
434200.062500 -24357.666016 1040620.437500 255 255 255
434982.468750 -24339.474609 1039843.312500 255 255 255
435872.156250 -24327.365234 1039325.937500 255 255 255
436657.593750 -24309.511719 1038563.187500 255 255 255
437519.281250 -24295.982422 1037985.250000 255 255 255
438388.562500 -24282.945312 1037428.187500 255 255 255
439191.093750 -24266.283203 1036716.312500 255 255 255
440102.156250 -24255.685547 1036263.625000 255 255 255
440920.937500 -24240.068359 1035596.375000 255 255 255
441809.531250 -24228.357422 1035096.062500 255 255 255
442703.000000 -24216.972656 1034609.687500 255 255 255
443528.093750 -24201.910156 1033966.187500 255 255 255
444446.125000 -24191.982422 1033542.062500 255 255 255
445288.312500 -24177.988281 1032944.187500 255 255 255
446201.218750 -24167.890625 1032512.812500 255 255 255
447124.968750 -24158.427734 1032108.562500 255 255 255
447986.375000 -24145.654297 1031562.750000 255 255 255
448927.812500 -24137.244141 1031203.500000 255 255 255
449826.687500 -24126.591797 1030748.437500 255 255 255
450802.875000 -24120.128906 1030472.312500 255 255 255
451787.343750 -24114.138672 1030216.375000 255 255 255
452700.187500 -24104.365234 1029798.812500 255 255 255
453658.406250 -24097.046875 1029486.187500 255 255 255
454577.875000 -24087.712891 1029087.375000 255 255 255
455576.593750 -24082.611328 1028869.437500 255 255 255
456561.875000 -24076.826172 1028622.250000 255 255 255
457453.250000 -24066.126953 1028165.187500 255 255 255
458375.218750 -24057.087891 1027779.000000 255 255 255
459201.812500 -24043.093750 1027181.187500 255 255 255
460080.187500 -24031.873047 1026701.812500 255 255 255
460961.312500 -24020.849609 1026230.812500 255 255 255
461802.031250 -24007.777344 1025672.312500 255 255 255
462742.218750 -23999.923828 1025336.875000 255 255 255
463611.937500 -23988.464844 1024847.250000 255 255 255
464544.281250 -23980.289062 1024498.000000 255 255 255
465471.093750 -23971.867188 1024138.187500 255 255 255
466324.937500 -23959.736328 1023619.937500 255 255 255
467244.718750 -23951.041016 1023248.500000 255 255 255
468063.375000 -23937.214844 1022657.750000 255 255 255
468932.906250 -23926.050781 1022180.750000 255 255 255
469799.781250 -23914.800781 1021700.187500 255 255 255
470619.531250 -23901.210938 1021119.500000 255 255 255
471540.718750 -23892.820312 1020761.125000 255 255 255
472350.218750 -23878.826172 1020163.250000 255 255 255
473196.906250 -23866.769531 1019648.125000 255 255 255
474047.875000 -23854.984375 1019144.625000 255 255 255
474867.562500 -23841.681641 1018576.312500 255 255 255
475800.906250 -23834.134766 1018253.875000 255 255 255
476642.343750 -23822.025391 1017736.562500 255 255 255
477522.093750 -23811.884766 1017303.312500 255 255 255
478410.468750 -23802.216797 1016890.250000 255 255 255
479271.593750 -23791.242188 1016421.375000 255 255 255
480229.218750 -23785.093750 1016158.750000 255 255 255
481098.062500 -23774.587891 1015709.875000 255 255 255
481999.406250 -23765.730469 1015331.500000 255 255 255
482891.656250 -23756.464844 1014935.625000 255 255 255
483734.812500 -23744.830078 1014438.625000 255 255 255
484659.250000 -23737.230469 1014113.875000 255 255 255
485488.812500 -23725.027344 1013592.500000 255 255 255
486367.187500 -23715.257812 1013175.187500 255 255 255
487237.531250 -23705.140625 1012742.937500 255 255 255
488059.562500 -23692.724609 1012212.500000 255 255 255
488974.906250 -23684.880859 1011877.375000 255 255 255
489731.781250 -23669.414062 1011216.625000 255 255 255
490494.156250 -23654.279297 1010570.062500 255 255 255
491253.875000 -23639.083984 1009920.812500 255 255 255
491963.375000 -23621.542969 1009171.437500 255 255 255
492815.250000 -23610.900391 1008716.750000 255 255 255
493781.500000 -23605.771484 1008497.625000 255 255 255
494896.187500 -23607.744141 1008581.937500 255 255 254
496163.250000 -23616.962891 1008975.812500 255 255 253
497437.750000 -23626.496094 1009383.000000 255 255 253
498674.593750 -23634.201172 1009712.250000 254 255 254
