ply
		format ascii 1.0
		element vertex 56540
		property float x
		property float y
		property float z
		property uchar red
		property uchar green
		property uchar blue
		end_header
3037824.750000 -373656.500000 7471128.500000 254 252 253
2973620.250000 -364804.406250 7294134.500000 254 252 253
2925225.250000 -357932.906250 7156741.500000 254 252 253
2844165.500000 -347110.562500 6940352.500000 254 252 253
2791206.250000 -339764.875000 6793478.000000 254 252 253
2723566.000000 -330674.687500 6611723.000000 254 252 253
2625331.250000 -317926.406250 6356825.500000 254 253 252
2554883.750000 -308600.000000 6170347.000000 254 253 250
2418440.500000 -291370.312500 5825846.000000 254 253 250
2324638.000000 -279352.937500 5585562.500000 255 254 250
2196535.750000 -263285.562500 5264301.000000 255 254 250
2052078.500000 -245344.562500 4905577.000000 254 253 249
1961945.500000 -233973.078125 4678208.500000 255 255 248
1659556.000000 -197410.453125 3947151.750000 254 253 245
1390021.125000 -164930.781250 3297732.250000 255 255 248
1177143.000000 -139320.281250 2785659.500000 255 255 244
1019842.437500 -120399.812500 2407351.500000 222 205 189
5307671.000000 -1089537.125000 22258560.000000 254 252 253
5374693.000000 -1098392.875000 22439476.000000 254 252 253
5504016.000000 -1119846.000000 22877750.000000 254 252 253
5624027.000000 -1139223.875000 23273628.000000 254 252 253
5655496.500000 -1140575.125000 23301232.000000 254 252 253
5613074.500000 -1127077.500000 23025486.000000 254 252 253
5582403.500000 -1116046.625000 22800132.000000 254 252 253
5588074.500000 -1112345.250000 22724516.000000 254 252 253
5618116.500000 -1113506.250000 22748232.000000 254 252 253
5668416.000000 -1118655.000000 22853418.000000 254 252 253
5731685.500000 -1126308.375000 23009772.000000 254 252 253
5792343.500000 -1133385.625000 23154358.000000 254 252 253
5831096.000000 -1136134.875000 23210522.000000 254 252 253
5857415.000000 -1136448.625000 23216932.000000 254 252 253
5884868.000000 -1136978.750000 23227760.000000 254 252 253
5906520.500000 -1136388.500000 23215704.000000 254 252 253
5912425.500000 -1132786.000000 23142106.000000 254 252 253
5897057.500000 -1125154.500000 22986200.000000 254 252 253
5901007.000000 -1121256.750000 22906570.000000 254 252 253
5957883.500000 -1127406.375000 23032204.000000 254 252 253
6045615.000000 -1139320.250000 23275596.000000 254 252 253
6151247.000000 -1154496.625000 23585640.000000 254 252 253
6234012.500000 -1165275.250000 23805842.000000 254 252 253
6303105.500000 -1173421.375000 23972262.000000 254 252 253
6368842.500000 -1180879.625000 24124628.000000 254 252 253
6405325.500000 -1182875.500000 24165404.000000 254 252 253
6428416.000000 -1182392.125000 24155530.000000 254 252 253
6422393.500000 -1176579.250000 24036774.000000 254 252 253
6433373.000000 -1173914.750000 23982342.000000 254 252 253
6506188.500000 -1182510.125000 24157940.000000 254 252 253
6608356.500000 -1196351.750000 24440716.000000 254 252 253
6727104.500000 -1213074.625000 24782352.000000 254 252 253
6811559.500000 -1223507.125000 24995482.000000 254 252 253
6882809.500000 -1231495.750000 25158684.000000 254 252 253
6962535.000000 -1240933.000000 25351482.000000 254 252 253
7015251.000000 -1245502.125000 25444826.000000 254 252 253
7066740.000000 -1249819.125000 25533020.000000 254 252 253
7110833.500000 -1252800.125000 25593918.000000 254 252 253
7134102.000000 -1252103.250000 25579682.000000 254 252 253
7140657.000000 -1248489.500000 25505856.000000 254 252 253
7137352.500000 -1243185.875000 25397506.000000 254 252 253
7100869.500000 -1232165.000000 25172356.000000 254 252 253
7063353.500000 -1221048.375000 24945250.000000 254 252 253
7024885.500000 -1209851.000000 24716496.000000 254 252 253
6991937.500000 -1199684.375000 24508798.000000 254 252 253
6991768.000000 -1195196.500000 24417114.000000 254 252 253
6969874.000000 -1187042.000000 24250522.000000 254 252 253
6964199.000000 -1181699.750000 24141384.000000 254 252 253
6939568.500000 -1173192.250000 23967580.000000 254 252 253
6868454.000000 -1156917.250000 23635092.000000 254 252 253
6806485.000000 -1142295.875000 23336386.000000 254 252 253
6713048.000000 -1122518.875000 22932356.000000 254 252 253
6663268.500000 -1110159.000000 22679850.000000 254 252 253
6605846.500000 -1096619.500000 22403248.000000 254 252 253
6504616.000000 -1075931.125000 21980596.000000 254 252 253
6433378.000000 -1060334.125000 21661960.000000 254 252 253
6316825.000000 -1037406.687500 21193566.000000 254 252 253
6234556.500000 -1020252.750000 20843122.000000 254 252 253
6155607.500000 -1003761.812500 20506222.000000 254 252 253
6055516.500000 -983952.062500 20101522.000000 254 252 253
6002253.500000 -971863.875000 19854568.000000 254 252 253
5912639.500000 -953995.437500 19489528.000000 254 252 253
5850675.500000 -940697.625000 19217862.000000 254 252 253
5790563.500000 -927789.250000 18954150.000000 254 252 253
5709470.000000 -911620.312500 18623830.000000 254 252 253
5665091.500000 -901405.187500 18415142.000000 254 252 253
5582083.500000 -885135.187500 18082756.000000 254 252 253
5518816.500000 -872096.437500 17816382.000000 254 252 253
5456291.000000 -859263.812500 17554220.000000 254 252 253
5378847.000000 -844177.375000 17246014.000000 254 252 253
5338941.000000 -835064.875000 17059852.000000 254 252 253
5264512.000000 -820632.750000 16765011.000000 254 252 253
5204763.000000 -808578.625000 16518753.000000 254 252 253
5151495.500000 -797609.187500 16294655.000000 254 252 253
5095651.000000 -786315.812500 16063938.000000 254 252 253
5076648.000000 -780763.875000 15950516.000000 254 252 253
5028888.500000 -770841.125000 15747800.000000 254 252 253
4988955.000000 -762179.875000 15570856.000000 254 252 253
4947852.000000 -753397.937500 15391447.000000 254 252 253
4896122.000000 -743061.187500 15180273.000000 254 252 253
4870362.500000 -736720.750000 15050742.000000 254 252 253
4821817.500000 -726986.562500 14851879.000000 254 252 253
4787196.500000 -719408.562500 14697064.000000 254 252 253
4753591.500000 -712032.000000 14546366.000000 254 252 253
4708674.500000 -703014.375000 14362142.000000 254 252 253
4686445.000000 -697431.562500 14248088.000000 254 252 253
4643556.000000 -688820.062500 14072161.000000 254 252 253
4605248.000000 -680941.312500 13911203.000000 254 252 253
4580121.500000 -675055.875000 13790967.000000 254 252 253
4567146.500000 -670993.250000 13707971.000000 254 252 253
4581376.000000 -670940.625000 13706896.000000 254 252 253
4607586.500000 -672637.375000 13741559.000000 254 252 253
4647776.500000 -676357.750000 13817564.000000 254 252 253
4681987.500000 -679187.250000 13875369.000000 254 252 253
4690217.000000 -678241.937500 13856057.000000 254 252 253
4681042.000000 -674793.500000 13785608.000000 254 252 253
4650236.000000 -668258.250000 13652096.000000 254 252 253
4630861.500000 -663401.312500 13552871.000000 254 252 255
4595704.500000 -656320.562500 13408216.000000 254 252 255
4529679.000000 -644888.937500 13174675.000000 254 253 252
4476318.500000 -635325.375000 12979299.000000 254 253 249
4410803.000000 -624100.875000 12749989.000000 254 253 248
4374988.500000 -617134.750000 12607676.000000 254 253 248
4352197.000000 -612042.750000 12503648.000000 254 253 248
4337804.000000 -608159.187500 12424310.000000 254 253 249
4350282.000000 -608055.062500 12422183.000000 254 253 250
4299536.500000 -599141.437500 12240083.000000 254 252 251
4441353.000000 -617034.125000 12605619.000000 254 252 252
4210580.000000 -583211.250000 11914640.000000 255 253 251
4877199.000000 -673517.000000 13759529.000000 254 252 246
6472558.500000 -891152.562500 18205688.000000 255 255 244
1728234.625000 -237236.031250 4846583.000000 255 255 236
746284.937500 -102138.242188 2086620.125000 222 222 193
465850.468750 -63568.187500 1298658.125000 209 210 173
369667.281250 -50294.179688 1027478.500000 209 210 166
353202.625000 -47912.394531 978820.062500 183 185 133
341428.375000 -46179.003906 943408.000000 152 155 97
340018.062500 -45853.410156 936756.375000 144 147 90
346714.500000 -46619.777344 952412.750000 164 164 113
348165.593750 -46678.425781 953610.937500 167 166 119
349289.875000 -46693.050781 953909.687500 162 161 116
350497.281250 -46718.671875 954433.062500 162 161 116
351744.343750 -46749.410156 955061.125000 162 161 116
352908.812500 -46769.031250 955461.875000 162 163 114
353898.031250 -46765.378906 955387.250000 157 161 107
354743.250000 -46742.769531 954925.375000 163 169 112
355410.625000 -46696.925781 953988.875000 162 170 112
356109.968750 -46655.535156 953143.250000 180 189 132
356740.531250 -46605.386719 952118.812500 208 218 163
357274.843750 -46542.988281 950844.062500 219 231 179
357952.937500 -46499.621094 949958.062500 241 253 205
358481.781250 -46437.160156 948682.062500 238 254 205
359096.218750 -46386.113281 947639.125000 230 249 197
359787.093750 -46345.191406 946803.125000 233 252 201
360548.343750 -46313.542969 946156.562500 229 250 198
361523.187500 -46309.429688 946072.562500 224 247 195
362183.656250 -46265.179688 945168.562500 233 255 204
362212.343750 -46140.695312 942625.437500 226 247 193
362935.218750 -46105.085938 941897.937500 213 231 175
357777.812500 -45324.734375 925955.812500 200 213 156
351136.062500 -44361.140625 906270.250000 173 182 124
385917.218750 -48621.699219 993310.750000 158 163 107
466568.062500 -58622.312500 1197617.000000 183 187 134
629595.187500 -78890.468750 1611682.750000 223 225 177
973058.437500 -121596.343750 2484137.000000 247 247 210
1446657.250000 -180288.859375 3683188.000000 255 255 229
2470864.250000 -307097.968750 6273818.500000 254 255 235
3067134.000000 -380179.593750 7766830.000000 253 254 243
2785823.750000 -344382.312500 7035514.000000 254 254 250
2957306.000000 -364600.906250 7448567.500000 253 253 251
2952362.250000 -363018.312500 7416236.000000 253 253 251
2966102.500000 -363735.375000 7430885.500000 253 253 250
3006976.000000 -367767.156250 7513252.000000 254 253 251
3028373.250000 -369401.843750 7546647.500000 254 253 252
3038100.750000 -369608.156250 7550862.500000 254 253 252
3030268.500000 -367682.781250 7511528.000000 254 252 252
3000156.500000 -363071.250000 7417317.500000 254 252 253
2975381.250000 -359128.062500 7336760.500000 254 252 253
2935672.750000 -353407.812500 7219899.500000 254 252 253
2877744.000000 -345529.750000 7058955.500000 254 252 253
2834650.500000 -339469.312500 6935144.500000 254 252 253
2758224.500000 -329458.906250 6730638.500000 254 252 253
2707237.250000 -322531.062500 6589107.000000 254 252 253
2639462.250000 -313644.156250 6407553.000000 254 252 253
2539689.750000 -301010.593750 6149457.500000 254 253 252
2466804.000000 -291620.531250 5957624.000000 254 253 250
2331466.250000 -274914.562500 5616331.500000 254 253 249
2239311.000000 -263372.843750 5380542.000000 255 254 250
2116695.250000 -248316.625000 5072952.500000 255 254 249
1976093.750000 -231232.406250 4723932.500000 254 253 248
1887691.000000 -220327.421875 4501150.500000 255 254 249
1611457.750000 -187609.937500 3832753.250000 254 253 247
1365966.250000 -158627.671875 3240663.500000 255 255 250
1167211.875000 -135205.234375 2762158.000000 255 255 247
1013908.625000 -117152.140625 2393344.750000 224 209 193
5284919.500000 -1061279.500000 22163148.000000 254 252 253
5353773.000000 -1070329.000000 22352134.000000 254 252 253
5487725.000000 -1092255.500000 22810034.000000 254 252 253
5612349.000000 -1112140.500000 23225302.000000 254 252 253
5644281.500000 -1113563.875000 23255026.000000 254 252 253
5598761.000000 -1099760.875000 22966770.000000 254 252 253
5568096.500000 -1088983.250000 22741698.000000 254 252 253
5578195.500000 -1086236.750000 22684342.000000 254 252 253
5612180.000000 -1088145.125000 22724196.000000 254 252 253
5661596.000000 -1093016.250000 22825920.000000 254 252 253
5720639.000000 -1099696.375000 22965426.000000 254 252 253
5777521.500000 -1105906.125000 23095106.000000 254 252 253
5815270.000000 -1108416.375000 23147528.000000 254 252 253
5841461.000000 -1108711.625000 23153694.000000 254 252 253
5868191.500000 -1109106.375000 23161938.000000 254 252 253
5889443.500000 -1108466.875000 23148582.000000 254 252 253
5894372.000000 -1104773.000000 23071442.000000 254 252 253
5877990.500000 -1097132.375000 22911880.000000 254 252 253
5880764.500000 -1093115.500000 22827992.000000 254 252 253
5936214.000000 -1098882.625000 22948430.000000 254 252 253
6022903.000000 -1110361.750000 23188154.000000 254 252 253
6126920.000000 -1124928.750000 23492364.000000 254 252 253
6208611.500000 -1135294.875000 23708844.000000 254 252 253
6276197.000000 -1143008.125000 23869922.000000 254 252 253
6339158.500000 -1149820.500000 24012188.000000 254 252 253
6373118.000000 -1151338.750000 24043896.000000 254 252 253
6392877.500000 -1150289.875000 24021990.000000 254 252 253
6384687.000000 -1144240.250000 23895652.000000 254 252 253
6393515.000000 -1141276.375000 23833758.000000 254 252 253
6463135.000000 -1149144.875000 23998078.000000 254 252 253
6562789.000000 -1162270.375000 24272184.000000 254 252 253
6677828.000000 -1178007.125000 24600820.000000 254 252 253
6759431.500000 -1187745.625000 24804194.000000 254 252 253
6827826.500000 -1195096.500000 24957706.000000 254 252 253
6903702.500000 -1203694.625000 25137266.000000 254 252 253
6953765.000000 -1207743.250000 25221812.000000 254 252 253
7001538.000000 -1211364.375000 25297436.000000 254 252 253
7042904.000000 -1213853.750000 25349422.000000 254 252 253
7063534.000000 -1212763.750000 25326658.000000 254 252 253
7066559.500000 -1208671.000000 25241188.000000 254 252 253
7060832.000000 -1203117.750000 25125216.000000 254 252 253
7020660.500000 -1191759.500000 24888018.000000 254 252 253
6979978.000000 -1180400.250000 24650798.000000 254 252 253
6938716.000000 -1169028.500000 24413316.000000 254 252 253
6903095.500000 -1158688.375000 24197380.000000 254 252 253
6901592.000000 -1154130.500000 24102196.000000 254 252 253
6877813.000000 -1145895.125000 23930212.000000 254 252 253
6870504.500000 -1140454.375000 23816592.000000 254 252 253
6844405.500000 -1131946.125000 23638910.000000 254 252 253
6771689.000000 -1115818.750000 23302114.000000 254 252 253
6708771.500000 -1101417.750000 23001372.000000 254 252 253
6614543.500000 -1081999.625000 22595856.000000 254 252 253
6564357.500000 -1069900.500000 22343184.000000 254 252 253
6506791.500000 -1056690.250000 22067310.000000 254 252 253
6405528.000000 -1036504.125000 21645754.000000 254 252 253
6334305.000000 -1021306.250000 21328370.000000 254 252 253
6217569.000000 -998904.875000 20860552.000000 254 252 253
6134721.000000 -982087.875000 20509356.000000 254 252 253
6055277.500000 -965933.187500 20171992.000000 254 252 253
5955254.000000 -946621.437500 19768696.000000 254 252 253
5902226.000000 -934889.500000 19523694.000000 254 252 253
5812991.000000 -917525.000000 19161062.000000 254 252 253
5750922.000000 -904554.687500 18890198.000000 254 252 253
5691021.000000 -892014.625000 18628320.000000 254 252 253
5610801.000000 -876387.875000 18301980.000000 254 252 253
5567224.000000 -866573.000000 18097010.000000 254 252 253
5486495.000000 -851062.812500 17773104.000000 254 252 253
5425456.500000 -838702.937500 17514988.000000 254 252 253
5365413.500000 -826581.250000 17261846.000000 254 252 253
5290817.000000 -812307.750000 16963766.000000 254 252 253
5252580.500000 -803694.812500 16783898.000000 254 252 253
5180045.000000 -789909.937500 16496023.000000 254 252 253
5121031.000000 -778273.125000 16253007.000000 254 252 253
5068401.500000 -767681.687500 16031822.000000 254 252 253
5014151.000000 -756916.562500 15807009.000000 254 252 253
4996424.500000 -751718.625000 15698458.000000 254 252 253
4950349.000000 -742304.375000 15501856.000000 254 252 253
4911351.500000 -734010.437500 15328651.000000 254 252 253
4871100.000000 -725584.625000 15152691.000000 254 252 253
4820336.000000 -715653.750000 14945300.000000 254 252 253
4794941.500000 -709542.250000 14817670.000000 254 252 253
4749160.000000 -700463.937500 14628085.000000 254 252 253
4718215.500000 -693626.062500 14485286.000000 254 252 253
4688560.500000 -687021.750000 14347365.000000 254 252 253
4646801.000000 -678692.375000 14173420.000000 254 252 253
4625678.500000 -673421.250000 14063341.000000 254 252 253
4585685.500000 -665445.812500 13896787.000000 254 252 253
4550440.000000 -658208.312500 13745643.000000 254 252 253
4528423.500000 -652924.687500 13635302.000000 254 252 253
4518411.000000 -649399.937500 13561694.000000 254 252 253
4534019.500000 -649568.375000 13565211.000000 254 252 253
4563777.000000 -651756.375000 13610903.000000 254 252 253
4608551.500000 -656068.187500 13700950.000000 254 252 253
4646603.000000 -659398.875000 13770505.000000 254 252 253
4657033.000000 -658801.125000 13758022.000000 254 252 253
4647384.500000 -655375.687500 13686487.000000 254 252 253
4613311.000000 -648537.937500 13543692.000000 254 252 253
4592111.500000 -643547.000000 13439464.000000 253 252 255
4550286.000000 -635705.437500 13275705.000000 253 253 255
4468082.000000 -622288.750000 12995519.000000 253 253 253
4398409.500000 -610694.812500 12753398.000000 253 253 251
4322927.000000 -598368.000000 12495972.000000 254 253 250
4288915.000000 -591839.437500 12359633.000000 254 253 249
4272038.000000 -587708.062500 12273356.000000 254 253 249
4226585.500000 -579682.687500 12105759.000000 254 253 249
4195588.000000 -573682.625000 11980457.000000 254 253 249
4312128.000000 -587831.250000 12275928.000000 255 252 249
5400550.500000 -733981.750000 15328051.000000 255 254 248
5244619.000000 -710642.625000 14840651.000000 254 254 245
4163098.750000 -562403.625000 11744913.000000 252 253 240
3252527.250000 -438076.875000 9148545.000000 255 255 236
1200886.000000 -161262.375000 3367710.250000 255 255 230
609694.812500 -81629.953125 1704712.875000 219 220 183
411286.406250 -54902.355469 1146549.125000 207 209 165
343414.281250 -45706.546875 954509.125000 202 204 154
341610.937500 -45332.433594 946696.375000 174 176 121
340228.468750 -45016.207031 940092.500000 163 164 106
339972.625000 -44850.464844 936631.250000 168 169 111
344384.312500 -45299.652344 946011.812500 172 172 119
345745.406250 -45346.121094 946982.187500 162 162 112
346842.218750 -45357.753906 947225.125000 162 161 113
348039.375000 -45382.406250 947739.937500 168 167 120
349309.156250 -45416.359375 948449.062500 166 165 117
350479.500000 -45437.222656 948884.750000 167 167 114
351435.843750 -45430.308594 948740.312500 170 170 115
352225.781250 -45401.980469 948148.750000 165 166 109
352848.593750 -45352.332031 947111.875000 168 173 114
353520.781250 -45309.292969 946213.125000 183 189 132
354162.031250 -45262.546875 945236.937500 194 203 149
354741.000000 -45208.128906 944100.500000 211 226 171
355476.531250 -45173.914062 943385.937500 235 253 198
356158.593750 -45133.117188 942534.000000 238 255 203
356933.593750 -45104.292969 941932.000000 233 252 196
357811.218750 -45088.562500 941603.500000 230 250 193
358871.062500 -45095.816406 941755.000000 229 251 194
360094.093750 -45123.480469 942332.750000 227 252 197
360670.312500 -45070.160156 941219.250000 224 249 196
361127.156250 -45002.261719 939801.312500 226 248 197
360800.062500 -44837.320312 936356.750000 223 242 189
354313.000000 -43909.882812 916988.625000 213 228 174
346591.062500 -42834.917969 894539.750000 204 215 159
363901.718750 -44851.132812 936645.125000 185 193 136
398855.187500 -49024.878906 1023807.250000 166 170 113
469488.750000 -57549.515625 1201830.875000 169 173 119
613646.312500 -75015.851562 1566587.750000 217 218 174
812603.375000 -99068.406250 2068887.375000 255 255 229
1289920.500000 -156835.468750 3275261.500000 254 255 232
2105496.250000 -255307.640625 5331697.500000 252 253 239
3184052.000000 -385053.125000 8041227.000000 254 254 247
4447954.000000 -536457.187500 11203062.000000 253 253 250
3438723.500000 -413627.531250 8637959.000000 253 253 251
2932368.000000 -351780.031250 7346371.500000 254 254 252
2916125.750000 -348901.281250 7286253.000000 254 253 250
2959672.000000 -353172.250000 7375445.000000 254 253 250
2954252.750000 -351593.125000 7342468.000000 254 253 250
2948114.000000 -349936.906250 7307880.000000 253 253 251
2919284.500000 -345603.125000 7217376.500000 253 252 252
2892248.750000 -341503.937500 7131771.000000 253 253 253
2854509.000000 -336165.593750 7020288.000000 253 253 253
2805726.500000 -329558.031250 6882300.000000 254 252 254
2773514.000000 -324926.156250 6785570.500000 254 252 255
2703087.750000 -315853.062500 6596093.500000 254 252 255
2650012.250000 -308849.156250 6449827.500000 254 252 253
2577452.750000 -299616.531250 6257019.000000 254 252 253
2475103.750000 -286977.531250 5993073.000000 255 253 253
2401064.750000 -277677.468750 5798856.000000 255 254 251
2266971.250000 -261497.750000 5460968.000000 255 254 250
2176041.250000 -250367.000000 5228520.000000 255 254 250
2057402.750000 -236113.109375 4930850.000000 255 254 250
1919599.250000 -219737.937500 4588880.500000 254 254 248
1832441.750000 -209228.640625 4369410.000000 255 254 248
1575549.000000 -179441.203125 3747346.500000 254 253 247
1349340.750000 -153290.046875 3201220.750000 255 255 249
1160931.125000 -131553.859375 2747295.000000 255 255 249
1008147.500000 -113953.796875 2379745.500000 227 213 197
5263161.000000 -1033419.812500 22071900.000000 254 252 253
5333982.500000 -1042672.000000 22269510.000000 254 252 253
5472914.000000 -1065097.375000 22748474.000000 254 252 253
5602530.000000 -1085520.250000 23184666.000000 254 252 253
5635141.500000 -1087051.375000 23217368.000000 254 252 253
5586487.000000 -1072960.875000 22916422.000000 254 252 253
5555416.000000 -1062355.250000 22689908.000000 254 252 253
5569105.500000 -1060364.000000 22647376.000000 254 252 253
5606458.500000 -1062875.875000 22701028.000000 254 252 253
5655418.500000 -1067557.375000 22801016.000000 254 252 253
5711313.500000 -1073502.375000 22927990.000000 254 252 253
5765334.500000 -1079046.000000 23046390.000000 254 252 253
5802282.000000 -1081360.750000 23095828.000000 254 252 253
5828255.000000 -1081619.250000 23101350.000000 254 252 253
5854230.500000 -1081876.000000 23106834.000000 254 252 253
5874984.000000 -1081169.750000 23091748.000000 254 252 253
5878752.000000 -1077356.500000 23010304.000000 254 252 253
5861207.500000 -1069685.250000 22846460.000000 254 252 253
5862627.500000 -1065524.125000 22757588.000000 254 252 253
5916435.000000 -1070879.500000 22871970.000000 254 252 253
6001941.000000 -1081905.000000 23107452.000000 254 252 253
6104032.000000 -1095817.750000 23404602.000000 254 252 253
6184325.000000 -1105720.125000 23616100.000000 254 252 253
6250068.000000 -1112951.500000 23770548.000000 254 252 253
6309866.500000 -1119070.250000 23901232.000000 254 252 253
6341104.000000 -1120094.875000 23923116.000000 254 252 253
6357155.500000 -1118439.500000 23887760.000000 254 252 253
6346424.500000 -1112104.125000 23752448.000000 254 252 253
6352752.500000 -1108796.500000 23681804.000000 254 252 253
6418732.000000 -1115885.375000 23833208.000000 254 252 253
6515571.000000 -1128262.125000 24097552.000000 254 252 253
6626405.500000 -1142955.750000 24411382.000000 254 252 253
6704678.500000 -1151940.250000 24603274.000000 254 252 253
6769805.000000 -1158605.000000 24745618.000000 254 252 253
6841503.000000 -1166338.375000 24910788.000000 254 252 253
6888811.500000 -1169870.125000 24986220.000000 254 252 253
6932763.000000 -1172806.875000 25048944.000000 254 252 253
6971291.000000 -1174807.000000 25091664.000000 254 252 253
6989224.500000 -1173334.750000 25060218.000000 254 252 253
6988711.000000 -1168788.375000 24963118.000000 254 252 253
6980653.500000 -1163019.750000 24839910.000000 254 252 253
6936955.500000 -1151379.000000 24591286.000000 254 252 253
6893243.000000 -1139823.375000 24344480.000000 254 252 253
6849365.500000 -1128327.125000 24098942.000000 254 252 253
6811360.000000 -1117880.500000 23875820.000000 254 252 253
6808750.500000 -1113299.000000 23777968.000000 254 252 253
6783500.000000 -1105063.000000 23602064.000000 254 252 253
6774956.500000 -1099599.625000 23485376.000000 254 252 253
6747800.500000 -1091166.500000 23305260.000000 254 252 253
6673881.500000 -1075261.000000 22965548.000000 254 252 253
6610171.500000 -1061110.250000 22663316.000000 254 252 253
6515756.000000 -1042151.312500 22258388.000000 254 252 253
6465832.500000 -1030420.250000 22007834.000000 254 252 253
6408812.500000 -1017646.937500 21735020.000000 254 252 253
6308057.000000 -998045.750000 21316376.000000 254 252 253
6237028.000000 -983271.500000 21000826.000000 254 252 253
6120466.000000 -961450.125000 20534764.000000 254 252 253
6037360.000000 -945020.750000 20183862.000000 254 252 253
5957772.500000 -929256.750000 19847172.000000 254 252 253
5858271.000000 -910509.000000 19446756.000000 254 252 253
5805806.000000 -899178.062500 19204750.000000 254 252 253
5717195.500000 -882348.250000 18845296.000000 254 252 253
5655076.500000 -869710.250000 18575372.000000 254 252 253
5595333.000000 -857524.375000 18315106.000000 254 252 253
5515948.000000 -842423.375000 17992576.000000 254 252 253
5473110.000000 -832989.250000 17791080.000000 254 252 253
5394722.500000 -818228.250000 17475814.000000 254 252 253
5336072.000000 -806551.937500 17226430.000000 254 252 253
5278742.500000 -795154.562500 16983004.000000 254 252 253
5207156.000000 -781694.750000 16695527.000000 254 252 253
5170691.000000 -773581.000000 16522232.000000 254 252 253
5100340.000000 -760469.625000 16242199.000000 254 252 253
5042438.500000 -749297.000000 16003572.000000 254 252 253
4990777.500000 -739123.687500 15786289.000000 254 252 253
4938370.500000 -728908.562500 15568113.000000 254 252 253
4921981.500000 -724060.250000 15464563.000000 254 252 253
4877537.000000 -715130.812500 15273847.000000 254 252 253
4839293.000000 -707166.875000 15103751.000000 254 252 253
4799709.500000 -699060.500000 14930615.000000 254 252 253
4749907.500000 -689524.250000 14726938.000000 254 252 253
4724994.000000 -683651.750000 14601514.000000 254 252 253
4681901.000000 -675196.125000 14420918.000000 254 252 253
4654400.000000 -669036.937500 14289368.000000 254 252 253
4628431.500000 -663137.437500 14163366.000000 254 252 253
4589712.000000 -655455.312500 13999290.000000 254 252 253
4569699.000000 -650485.625000 13893148.000000 254 252 253
4532553.500000 -643117.125000 13735770.000000 254 252 253
4500441.500000 -636508.000000 13594611.000000 254 252 253
4481354.000000 -631777.312500 13493574.000000 254 252 253
4473630.500000 -628673.812500 13427289.000000 254 252 253
4489827.000000 -628940.937500 13432993.000000 254 252 253
4522074.500000 -631447.562500 13486531.000000 254 252 253
4570920.500000 -636248.750000 13589075.000000 254 252 253
4612014.500000 -639944.062500 13668000.000000 254 252 253
4623039.500000 -639457.000000 13657597.000000 254 252 253
4611459.000000 -635856.000000 13580686.000000 254 252 253
4571544.500000 -628382.875000 13421074.000000 254 252 253
4545282.500000 -622827.062500 13302412.000000 253 253 255
4495217.000000 -614054.062500 13115038.000000 253 253 255
4398393.500000 -598968.062500 12792829.000000 253 253 255
4315950.000000 -585927.250000 12514302.000000 253 253 253
4236358.000000 -573352.687500 12245733.000000 253 253 252
4214309.000000 -568619.250000 12144636.000000 254 252 252
4205203.000000 -565655.812500 12081342.000000 254 253 251
4167091.500000 -558820.625000 11935356.000000 254 253 251
4140520.000000 -553569.937500 11823210.000000 254 253 249
4184744.000000 -557787.375000 11913287.000000 255 255 249
5867279.500000 -779691.375000 16652739.000000 254 253 242
5004941.000000 -663093.875000 14162436.000000 255 254 238
2528919.500000 -334045.125000 7134575.000000 255 255 237
1553814.500000 -204629.062500 4370491.500000 251 251 219
799386.312500 -104960.703125 2241762.750000 237 237 197
503833.437500 -65957.281250 1408723.375000 213 213 168
378990.312500 -49466.761719 1056516.875000 196 197 148
331443.875000 -43132.910156 921237.687500 186 188 134
335890.531250 -43582.664062 930843.562500 180 182 124
339308.031250 -43896.625000 937549.250000 177 176 119
339511.406250 -43794.152344 935360.625000 176 175 118
342174.312500 -44008.609375 939940.937500 173 172 118
343333.937500 -44029.035156 940377.250000 165 168 114
344441.562500 -44042.691406 940668.937500 162 164 112
345666.000000 -44071.167969 941277.125000 163 163 112
346977.250000 -44110.511719 942117.375000 164 164 110
348170.406250 -44134.660156 942633.187500 168 166 110
349082.843750 -44123.187500 942388.125000 171 169 111
349791.218750 -44086.058594 941595.187500 179 179 121
350347.937500 -44030.085938 940399.687500 177 179 121
350982.062500 -43984.128906 939418.125000 173 179 122
351639.625000 -43941.367188 938504.812500 195 206 151
352285.000000 -43897.324219 937564.187500 209 224 169
353106.875000 -43875.464844 937097.250000 219 237 182
353996.468750 -43862.117188 936812.187500 234 252 198
354977.718750 -43860.171875 936770.625000 238 255 201
356099.468750 -43875.542969 937098.937500 234 253 194
357332.937500 -43904.558594 937718.625000 234 254 195
358590.156250 -43936.320312 938397.062500 230 252 198
359867.437500 -43970.359375 939124.062500 226 249 197
360832.093750 -43966.121094 939033.500000 228 249 200
362025.375000 -43989.679688 939536.625000 224 242 194
362522.250000 -43928.722656 938234.750000 217 234 183
362700.468750 -43829.597656 936117.625000 220 236 183
369633.343750 -44545.023438 951397.750000 212 224 169
371679.968750 -44669.300781 954052.125000 180 191 133
391512.750000 -46924.660156 1002222.375000 143 153 95
453750.156250 -54236.347656 1158386.125000 162 170 118
547714.125000 -65290.386719 1394479.625000 226 231 191
781081.562500 -92857.398438 1983259.000000 252 255 225
1247191.500000 -147870.406250 3158233.250000 255 255 239
2235066.750000 -264283.343750 5644594.000000 253 252 244
4005728.500000 -472383.843750 10089229.000000 253 252 249
3191503.500000 -375358.531250 8016951.000000 255 254 252
2790499.250000 -327320.625000 6990951.500000 255 254 252
2833551.250000 -331486.718750 7079931.500000 253 252 248
2866973.750000 -334507.187500 7144443.500000 254 252 247
2878373.500000 -334948.937500 7153878.500000 254 253 250
2867957.750000 -332856.437500 7109186.500000 252 253 251
2834412.250000 -328097.562500 7007546.000000 253 253 251
2802761.250000 -323582.406250 6911111.000000 253 253 252
2763289.500000 -318190.312500 6795945.500000 253 253 254
2722264.750000 -312648.031250 6677573.000000 253 253 255
2701233.250000 -309424.843750 6608731.500000 254 252 255
2637228.500000 -301308.562500 6435383.000000 254 252 255
2581744.500000 -294205.343750 6283672.000000 254 252 253
2504945.500000 -284716.156250 6081001.000000 254 252 253
2401955.500000 -272306.593750 5815956.000000 254 253 252
2328790.500000 -263333.406250 5624305.000000 254 253 250
2198414.500000 -247953.500000 5295819.500000 254 253 249
2110075.500000 -237381.390625 5070019.000000 255 254 249
1996593.875000 -224041.906250 4785113.000000 255 254 249
1863274.875000 -208549.984375 4454234.500000 254 254 247
1778517.875000 -198558.250000 4240830.000000 255 255 245
1540061.375000 -171501.140625 3662941.000000 254 254 245
1330602.250000 -147801.656250 3156764.750000 255 255 246
1153057.375000 -127757.617188 2728662.000000 255 255 247
1004981.812500 -111071.257812 2372272.750000 231 218 201
932071.875000 -102755.062500 2194654.500000 157 132 109
5236206.500000 -1004757.312500 21958862.000000 254 252 253
5309775.000000 -1014346.937500 22168442.000000 254 252 253
5455616.000000 -1037597.187500 22676574.000000 254 252 253
5592195.500000 -1058888.875000 23141900.000000 254 252 253
5625975.500000 -1060614.000000 23179604.000000 254 252 253
5573228.500000 -1046083.187500 22862034.000000 254 252 253
5540893.500000 -1035493.312500 22630592.000000 254 252 253
5557721.500000 -1034142.937500 22601082.000000 254 252 253
5598389.000000 -1037221.125000 22668354.000000 254 252 253
5647382.000000 -1041808.687500 22768614.000000 254 252 253
5700939.500000 -1047195.437500 22886342.000000 254 252 253
5752835.500000 -1052232.500000 22996428.000000 254 252 253
5789279.500000 -1054412.625000 23044072.000000 254 252 253
5815015.000000 -1054632.125000 23048872.000000 254 252 253
5840179.500000 -1054746.750000 23051374.000000 254 252 253
5860241.000000 -1053942.625000 23033802.000000 254 252 253
5862440.000000 -1049946.125000 22946458.000000 254 252 253
5843322.500000 -1042180.812500 22776748.000000 254 252 253
5842949.000000 -1037808.937500 22681202.000000 254 252 253
5894645.000000 -1042683.375000 22787732.000000 254 252 253
5978652.000000 -1053210.000000 23017790.000000 254 252 253
6078155.000000 -1066369.250000 23305384.000000 254 252 253
6156418.500000 -1075710.375000 23509534.000000 254 252 253
6219595.500000 -1082350.500000 23654654.000000 254 252 253
6275401.000000 -1087659.500000 23770680.000000 254 252 253
6303389.500000 -1088123.875000 23780830.000000 254 252 253
6314751.000000 -1085725.750000 23728418.000000 254 252 253
6300523.500000 -1078964.750000 23580658.000000 254 252 253
6303455.500000 -1075184.250000 23498034.000000 254 252 253
6365009.500000 -1081393.250000 23633732.000000 254 252 253
6458709.500000 -1092993.500000 23887252.000000 254 252 253
6564677.500000 -1106570.500000 24183978.000000 254 252 253
6638897.500000 -1114711.000000 24361888.000000 254 252 253
6700113.500000 -1120613.125000 24490878.000000 254 252 253
6767058.500000 -1127424.000000 24639728.000000 254 252 253
6811430.000000 -1130435.875000 24705552.000000 254 252 253
6851392.000000 -1132695.625000 24754940.000000 254 252 253
6887055.000000 -1134230.125000 24788476.000000 254 252 253
6902242.500000 -1132393.625000 24748340.000000 254 252 253
6897911.000000 -1127381.000000 24638788.000000 254 252 253
6887107.000000 -1121352.375000 24507034.000000 254 252 253
6839587.000000 -1109413.750000 24246118.000000 254 252 253
6792696.500000 -1097666.625000 23989386.000000 254 252 253
6746250.500000 -1086079.125000 23736140.000000 254 252 253
6705866.000000 -1075550.250000 23506032.000000 254 252 253
6702189.500000 -1070965.250000 23405828.000000 254 252 253
6675615.500000 -1062768.875000 23226698.000000 254 252 253
6666012.000000 -1057324.875000 23107720.000000 254 252 253
6637901.000000 -1048996.000000 22925694.000000 254 252 253
6562639.500000 -1033304.250000 22582752.000000 254 252 253
6497853.500000 -1019370.312500 22278228.000000 254 252 253
6403215.000000 -1000871.625000 21873940.000000 254 252 253
6353914.500000 -989567.875000 21626898.000000 254 252 253
6297757.000000 -977281.687500 21358384.000000 254 252 253
6197512.000000 -958267.000000 20942820.000000 254 252 253
6126432.000000 -943881.937500 20628436.000000 254 252 253
6009966.500000 -922632.187500 20164026.000000 254 252 253
5926682.500000 -906609.500000 19813852.000000 254 252 253
5847134.500000 -891269.812500 19478604.000000 254 252 253
5748512.500000 -873141.375000 19082410.000000 254 252 253
5696915.500000 -862258.062500 18844556.000000 254 252 253
5608888.000000 -845956.500000 18488288.000000 254 252 253
5546249.500000 -833584.875000 18217906.000000 254 252 253
5486170.500000 -821682.750000 17957786.000000 254 252 253
5407458.000000 -807082.125000 17638692.000000 254 252 253
5365448.500000 -798041.625000 17441112.000000 254 252 253
5289729.500000 -784066.875000 17135696.000000 254 252 253
5233896.000000 -773125.500000 16896574.000000 254 252 253
5179672.000000 -762496.125000 16664270.000000 254 252 253
5111270.000000 -749859.125000 16388090.000000 254 252 253
5076465.500000 -742220.437500 16221147.000000 254 252 253
5008564.000000 -729810.812500 15949936.000000 254 252 253
4952326.000000 -719178.812500 15717574.000000 254 252 253
4902151.500000 -709496.000000 15505958.000000 254 252 253
4851789.000000 -699851.000000 15295167.000000 254 252 253
4836626.000000 -695330.875000 15196380.000000 254 252 253
4793594.000000 -686847.750000 15010982.000000 254 252 253
4755867.000000 -679178.562500 14843373.000000 254 252 253
4716727.500000 -671359.062500 14672480.000000 254 252 253
4667758.000000 -662196.687500 14472236.000000 254 252 253
4643331.500000 -656564.875000 14349154.000000 254 252 253
4602992.500000 -648727.437500 14177867.000000 254 252 253
4578962.000000 -643232.125000 14057767.000000 254 252 253
4556823.500000 -638037.500000 13944240.000000 254 252 253
4521499.500000 -631036.375000 13791232.000000 254 252 253
4502950.500000 -626414.187500 13690214.000000 254 252 253
4468794.500000 -619657.687500 13542551.000000 254 252 253
4439585.000000 -613628.312500 13410780.000000 254 252 253
4423180.500000 -609401.812500 13318410.000000 254 252 253
4417969.000000 -606739.437500 13260224.000000 254 252 253
4435179.500000 -607163.562500 13269494.000000 254 252 253
4469644.000000 -609939.562500 13330162.000000 254 252 253
4521873.000000 -615114.437500 13443260.000000 254 252 253
4564625.000000 -618971.687500 13527559.000000 254 252 253
4574109.000000 -618307.562500 13513044.000000 254 252 253
4558740.000000 -614298.625000 13425430.000000 254 252 253
4510920.000000 -605955.625000 13243093.000000 254 252 253
4477501.500000 -599593.062500 13104041.000000 253 253 253
4419075.500000 -589931.687500 12892892.000000 253 253 254
4309690.500000 -573548.187500 12534833.000000 253 253 255
4217549.000000 -559553.625000 12228984.000000 253 253 255
4142055.000000 -547847.062500 11973138.000000 253 252 254
4141349.000000 -546073.750000 11934383.000000 254 252 255
4150109.750000 -545555.750000 11923061.000000 254 252 254
4204487.500000 -551019.250000 12042466.000000 255 252 253
4290203.000000 -560544.000000 12250629.000000 255 252 251
3981387.750000 -518619.125000 11334364.000000 255 253 244
5450295.500000 -707815.812500 15469238.000000 255 255 239
3544912.750000 -458982.281250 10031008.000000 253 253 230
1388855.625000 -179284.015625 3918232.500000 231 230 196
803250.437500 -103379.257812 2259342.250000 204 204 163
516386.343750 -66261.164062 1448130.625000 197 196 151
403687.125000 -51645.796875 1128713.250000 198 197 146
350238.406250 -44674.886719 976364.750000 192 192 138
324358.968750 -41251.429688 901545.500000 187 187 131
331392.781250 -42021.675781 918379.125000 184 183 127
337057.500000 -42614.292969 931330.687500 184 182 125
337874.531250 -42592.339844 930850.937500 182 180 123
339319.687500 -42649.464844 932099.437500 175 174 119
340447.218750 -42666.449219 932470.625000 173 172 119
341559.937500 -42681.488281 932799.250000 175 175 121
342755.312500 -42706.734375 933351.062500 175 175 120
344011.968750 -42739.449219 934066.000000 172 173 116
345132.250000 -42755.082031 934407.687500 173 173 116
345969.687500 -42735.687500 933983.812500 174 177 117
346625.718750 -42694.058594 933074.000000 179 181 122
347178.187500 -42639.949219 931891.437500 154 157 99
347844.875000 -42600.136719 931021.375000 153 161 104
348581.343750 -42569.070312 930342.375000 208 219 163
349337.156250 -42540.535156 929718.812500 210 223 168
350252.062500 -42531.484375 929520.937500 217 232 176
351275.562500 -42535.632812 929611.625000 238 251 198
352353.281250 -42546.304688 929844.812500 243 255 202
353563.250000 -42572.839844 930424.750000 236 252 194
354900.250000 -42614.476562 931334.750000 235 250 195
356211.312500 -42652.781250 932171.875000 231 248 197
357618.343750 -42702.328125 933254.687500 232 250 202
358858.750000 -42731.761719 933898.000000 233 249 203
360112.375000 -42762.601562 934572.000000 228 245 200
361772.718750 -42841.433594 936294.875000 225 243 195
363423.656250 -42918.726562 937984.125000 224 241 190
363281.031250 -42784.363281 935047.562500 216 234 180
354302.531250 -41612.957031 909446.625000 204 221 163
356670.781250 -41776.984375 913031.375000 187 202 143
383902.656250 -44844.484375 980071.375000 170 183 128
427024.250000 -49746.453125 1087203.250000 174 184 136
535343.937500 -62196.691406 1359301.875000 224 232 193
711545.750000 -82445.179688 1801830.375000 252 255 229
1025704.000000 -118526.539062 2590384.500000 255 255 238
1678112.625000 -193396.640625 4226662.500000 254 255 245
2207715.750000 -253751.390625 5545709.000000 255 255 250
2948637.750000 -338008.156250 7387131.500000 255 251 248
3160007.750000 -361274.656250 7895618.000000 252 250 247
2834983.500000 -323255.968750 7064724.000000 254 253 250
2809483.750000 -319501.031250 6982660.000000 255 255 252
2779245.750000 -315228.500000 6889284.500000 253 253 251
2726795.250000 -308465.656250 6741483.500000 253 252 252
2685692.250000 -303018.625000 6622439.000000 253 252 254
2643885.500000 -297520.906250 6502287.000000 254 252 255
2605184.250000 -292400.468750 6390380.500000 254 252 255
2590978.500000 -290048.843750 6338986.000000 254 252 255
2533096.250000 -282832.781250 6181279.000000 254 252 255
2478729.000000 -276045.468750 6032944.000000 254 252 253
2402979.250000 -266918.156250 5833467.500000 254 252 253
2303232.250000 -255179.171875 5576913.000000 254 252 252
2232771.250000 -246736.843750 5392407.000000 254 253 250
2109521.750000 -232519.281250 5081683.500000 255 254 250
2026394.375000 -222785.500000 4868953.000000 255 255 250
1920765.750000 -210633.890625 4603380.500000 255 255 248
1794850.500000 -196325.078125 4290663.000000 254 254 245
1714210.875000 -187028.687500 4087491.750000 254 254 244
1495608.250000 -162765.046875 3557212.250000 254 254 243
1300257.625000 -141148.015625 3084774.250000 255 255 245
1136997.500000 -123114.648438 2690657.250000 255 255 247
1005223.437500 -108572.640625 2372843.250000 236 224 207
943725.062500 -101674.867188 2222093.000000 162 137 114
5219594.000000 -978273.812500 21889194.000000 254 252 253
5295132.500000 -988021.750000 22107308.000000 254 252 253
5445934.500000 -1011664.875000 22636330.000000 254 252 253
5587546.000000 -1033399.937500 23122660.000000 254 252 253
5622321.500000 -1035272.000000 23164548.000000 254 252 253
5566849.000000 -1020582.437500 22835864.000000 254 252 253
5533093.000000 -1009984.625000 22598734.000000 254 252 253
5550836.500000 -1008838.250000 22573084.000000 254 252 253
5592876.000000 -1012098.437500 22646032.000000 254 252 253
5642406.000000 -1016680.312500 22748552.000000 254 252 253
5695830.000000 -1021921.687500 22865830.000000 254 252 253
5747578.000000 -1026819.062500 22975410.000000 254 252 253
5784065.000000 -1028960.062500 23023316.000000 254 252 253
5809637.000000 -1029149.437500 23027554.000000 254 252 253
5834341.500000 -1029184.187500 23028332.000000 254 252 253
5853888.500000 -1028312.750000 23008832.000000 254 252 253
5854922.000000 -1024209.937500 22917030.000000 254 252 253
5834674.500000 -1016433.875000 22743038.000000 254 252 253
5833021.500000 -1011947.875000 22642664.000000 254 252 253
5883228.500000 -1016458.875000 22743598.000000 254 252 253
5966210.000000 -1026572.250000 22969888.000000 254 252 253
6063845.000000 -1039114.062500 23250514.000000 254 252 253
6140535.000000 -1047979.375000 23448880.000000 254 252 253
6201783.000000 -1054148.125000 23586906.000000 254 252 253
6254832.500000 -1058879.250000 23692768.000000 254 252 253
6280766.000000 -1059000.375000 23695478.000000 254 252 253
6288932.500000 -1056136.750000 23631402.000000 254 252 253
6272118.000000 -1049117.500000 23474346.000000 254 252 253
6272603.000000 -1045036.062500 23383022.000000 254 252 253
6331193.000000 -1050629.125000 23508168.000000 254 252 253
6422968.000000 -1061663.375000 23755064.000000 254 252 253
6525852.000000 -1074440.125000 24040948.000000 254 252 253
6597341.000000 -1081968.250000 24209392.000000 254 252 253
6655976.500000 -1087338.125000 24329544.000000 254 252 253
6720019.500000 -1093546.250000 24468454.000000 254 252 253
6762746.000000 -1096251.000000 24528972.000000 254 252 253
6800524.500000 -1098136.000000 24571150.000000 254 252 253
6834684.500000 -1099424.375000 24599980.000000 254 252 253
6848425.000000 -1097430.875000 24555374.000000 254 252 253
6841941.000000 -1092224.000000 24438868.000000 254 252 253
6829546.000000 -1086116.500000 24302210.000000 254 252 253
6779910.000000 -1074154.875000 24034566.000000 254 252 253
6731367.500000 -1062455.875000 23772794.000000 254 252 253
6683653.000000 -1050974.500000 23515896.000000 254 252 253
6642168.500000 -1040554.875000 23282754.000000 254 252 253
6638070.500000 -1036047.812500 23181908.000000 254 252 253
6611065.500000 -1028012.187500 23002108.000000 254 252 253
6601187.500000 -1022689.312500 22883006.000000 254 252 253
6572822.500000 -1014551.875000 22700928.000000 254 252 253
6496894.000000 -999159.312500 22356514.000000 254 252 253
6431402.500000 -985478.250000 22050398.000000 254 252 253
6336841.500000 -967458.625000 21647202.000000 254 252 253
6288325.000000 -956573.812500 21403650.000000 254 252 253
6233067.500000 -944745.812500 21138996.000000 254 252 253
6133252.500000 -926273.562500 20725672.000000 254 252 253
6062041.500000 -912238.187500 20411626.000000 254 252 253
5945673.500000 -891531.937500 19948318.000000 254 252 253
5862443.500000 -875924.187500 19599088.000000 254 252 253
5783144.500000 -861012.437500 19265434.000000 254 252 253
5685317.000000 -843457.250000 18872630.000000 254 252 253
5634463.500000 -832969.937500 18637974.000000 254 252 253
5546768.000000 -817128.937500 18283526.000000 254 252 253
5483563.500000 -804993.875000 18012000.000000 254 252 253
5422956.500000 -793323.312500 17750868.000000 254 252 253
5344446.000000 -779123.875000 17433150.000000 254 252 253
5302873.000000 -770388.875000 17237702.000000 254 252 253
5228763.000000 -757003.500000 16938200.000000 254 252 253
5174719.000000 -746605.187500 16705534.000000 254 252 253
5122452.500000 -736533.625000 16480180.000000 254 252 253
5055870.500000 -724479.500000 16210465.000000 254 252 253
5021898.000000 -717164.250000 16046784.000000 254 252 253
4955538.500000 -705289.187500 15781075.000000 254 252 253
4900634.000000 -695119.062500 15553516.000000 254 252 253
4851654.000000 -685855.000000 15346229.000000 254 252 253
4802577.500000 -676639.500000 15140029.000000 254 252 253
4788013.000000 -672331.750000 15043642.000000 254 252 253
4745562.500000 -664150.062500 14860573.000000 254 252 253
4707871.500000 -656686.625000 14693577.000000 254 252 253
4668753.500000 -649074.125000 14523245.000000 254 252 253
4620151.000000 -640197.750000 14324633.000000 254 252 253
4596017.000000 -634759.062500 14202940.000000 254 252 253
4557144.500000 -627327.187500 14036649.000000 254 252 253
4534877.000000 -622222.187500 13922423.000000 254 252 253
4514750.500000 -617443.187500 13815493.000000 254 252 253
4481374.500000 -610889.187500 13668844.000000 254 252 253
4463818.000000 -606527.062500 13571240.000000 254 252 253
4431293.000000 -600165.750000 13428904.000000 254 252 253
4403466.000000 -594479.625000 13301674.000000 254 252 253
4388227.000000 -590523.812500 13213163.000000 254 252 253
4384185.500000 -588095.437500 13158827.000000 254 252 253
4401874.500000 -588588.125000 13169851.000000 254 252 253
4436873.500000 -591384.812500 13232428.000000 254 252 253
4490166.500000 -596594.625000 13348999.000000 254 252 253
4532537.500000 -600324.875000 13432464.000000 254 252 253
4539189.500000 -599315.687500 13409883.000000 254 252 253
4520110.500000 -594926.125000 13311666.000000 254 252 253
4465935.000000 -585959.187500 13111027.000000 254 252 253
4426345.000000 -578955.812500 12954325.000000 253 253 250
4362966.500000 -568894.125000 12729191.000000 253 253 251
4248640.000000 -552272.062500 12357268.000000 253 253 253
4154172.750000 -538326.125000 12045222.000000 253 253 255
4087925.750000 -528111.687500 11816671.000000 253 252 255
4108117.000000 -529092.437500 11838616.000000 253 252 255
4134612.500000 -530876.687500 11878539.000000 254 251 255
4312956.000000 -552087.625000 12353141.000000 255 251 255
4570909.000000 -583329.250000 13052182.000000 255 253 252
3803445.000000 -483916.562500 10827791.000000 253 251 238
4652278.500000 -590126.625000 13204275.000000 255 255 232
2558404.500000 -323548.125000 7239494.500000 241 239 205
953561.000000 -120229.820312 2690181.500000 187 185 144
551466.125000 -69323.515625 1551136.125000 166 164 116
393107.187500 -49269.093750 1102412.000000 180 178 128
