ply
		format ascii 1.0
		element vertex 10632
		property float x
		property float y
		property float z
		property uchar red
		property uchar green
		property uchar blue
		end_header
457401.812500 177096.390625 723471.625000 186 189 182
458317.187500 177152.593750 723701.187500 182 187 179
459197.781250 177195.187500 723875.250000 188 192 185
460064.031250 177232.109375 724026.125000 195 198 191
460910.281250 177261.218750 724145.000000 197 199 193
461694.687500 177266.500000 724166.562500 200 202 196
462622.687500 177326.781250 724412.875000 212 214 207
463587.406250 177400.937500 724715.750000 224 227 221
464639.625000 177508.250000 725154.187500 231 235 231
465809.593750 177660.140625 725774.687500 237 244 238
466902.343750 177782.125000 726272.937500 244 250 247
468038.687500 177920.250000 726837.312500 246 252 250
468981.218750 177984.390625 727099.312500 242 251 247
469915.500000 178045.187500 727347.625000 237 246 242
471010.187500 178166.453125 727843.062500 232 240 235
472050.718750 178266.875000 728253.312500 224 234 226
473273.812500 178435.796875 728943.375000 217 224 216
474415.906250 178573.671875 729506.625000 208 214 206
475593.687500 178724.515625 730122.875000 203 209 200
476898.437500 178922.500000 730931.625000 208 211 205
478041.843750 179059.406250 731490.937500 210 212 208
479332.718750 179251.015625 732273.687500 206 208 203
480470.718750 179384.921875 732820.750000 203 205 200
481599.093750 179514.828125 733351.375000 204 206 200
482864.156250 179695.156250 734088.125000 209 210 205
483975.500000 179817.796875 734589.125000 214 217 210
485256.500000 180002.968750 735345.562500 217 220 212
486413.125000 180141.500000 735911.437500 218 221 212
487581.000000 180283.718750 736492.500000 217 220 209
488882.468750 180474.812500 737273.125000 214 217 206
490019.750000 180604.781250 737804.125000 213 216 205
491381.468750 180816.937500 738670.750000 215 218 209
492691.343750 181009.343750 739456.750000 219 223 214
493934.562500 181176.687500 740140.437500 221 224 216
495065.875000 181302.531250 740654.500000 219 222 214
495905.312500 181321.250000 740731.000000 216 218 210
497162.062500 181492.250000 741429.562500 216 218 210
498510.281250 181696.046875 742262.062500 216 218 210
500121.031250 181994.718750 743482.250000 212 213 205
502091.687500 182423.234375 745232.812500 210 211 203
503838.812500 182769.296875 746646.562500 216 218 210
505924.281250 183236.828125 748556.437500 225 225 220
507643.687500 183570.500000 749919.625000 228 229 224
509243.281250 183859.875000 751101.687500 228 232 225
511036.718750 184218.218750 752565.625000 232 235 229
512413.968750 184425.640625 753412.937500 234 237 232
513873.781250 184662.078125 754378.937500 235 238 234
515077.062500 184805.765625 754965.875000 242 245 242
516107.812500 184887.171875 755298.437500 250 253 250
517167.750000 184978.781250 755672.687500 251 254 252
518041.968750 185003.765625 755774.750000 250 254 250
518976.781250 185050.296875 755964.812500 253 255 253
519884.937500 185087.171875 756115.500000 255 255 254
520815.281250 185131.828125 756297.937500 249 252 245
521842.218750 185210.640625 756619.875000 243 248 244
522835.937500 185277.437500 756892.750000 245 250 252
523856.156250 185353.390625 757203.062500 246 252 249
524778.625000 185394.593750 757371.312500 248 255 244
525671.562500 185425.250000 757496.562500 249 255 244
526622.812500 185476.343750 757705.312500 244 252 240
527530.875000 185512.093750 757851.375000 245 252 242
528408.000000 185536.875000 757952.562500 245 252 245
529215.125000 185537.031250 757953.250000 237 243 240
529981.000000 185522.750000 757894.937500 237 243 241
530746.937500 185508.546875 757836.875000 244 251 244
531514.437500 185494.921875 757781.250000 239 247 235
532312.187500 185491.890625 757768.812500 235 243 229
533130.875000 185496.140625 757786.187500 236 244 231
533994.312500 185515.906250 757866.937500 230 237 224
534878.437500 185542.828125 757976.937500 224 232 219
535754.250000 185566.765625 758074.687500 224 232 222
536810.937500 185653.187500 758427.750000 223 232 223
537905.062500 185752.296875 758832.625000 219 229 220
539068.750000 185875.078125 759334.187500 215 226 216
540306.062500 186022.843750 759937.812500 216 226 217
541410.937500 186124.640625 760353.687500 217 227 218
542567.625000 186243.906250 760840.937500 215 224 216
543579.312500 186313.125000 761123.687500 211 221 212
544538.937500 186364.328125 761332.875000 209 217 209
545578.625000 186442.718750 761653.125000 210 213 206
546537.250000 186493.250000 761859.500000 211 214 208
547497.125000 186544.015625 762066.937500 207 210 206
548385.187500 186570.218750 762174.000000 202 205 201
549216.562500 186577.093750 762202.062500 207 212 206
550033.000000 186578.875000 762209.375000 213 219 212
550810.750000 186567.546875 762163.125000 207 213 206
551609.562500 186563.375000 762146.062500 199 205 198
552431.187500 186566.937500 762160.625000 199 205 198
553276.062500 186578.312500 762207.062500 207 212 205
554130.187500 186592.765625 762266.125000 209 214 206
554978.187500 186605.125000 762316.625000 205 212 202
555900.062500 186642.250000 762468.250000 208 212 203
556821.000000 186678.953125 762618.187500 212 215 205
557786.187500 186730.359375 762828.250000 213 216 207
558817.562500 186803.734375 763127.937500 210 216 205
559804.312500 186862.015625 763366.062500 203 210 199
560853.437500 186940.906250 763688.312500 197 204 193
561815.187500 186990.515625 763890.937500 198 205 194
562787.375000 187043.421875 764107.062500 202 209 199
563853.375000 187127.312500 764449.812500 205 212 202
564861.937500 187191.921875 764713.750000 207 213 203
565967.750000 187288.531250 765108.437500 205 211 201
566984.562500 187355.468750 765381.875000 201 206 196
568030.437500 187431.781250 765693.625000 200 204 197
569189.750000 187545.281250 766157.312500 203 208 203
570266.000000 187631.109375 766507.875000 210 215 211
571535.312500 187780.109375 767116.625000 214 220 215
572718.875000 187900.578125 767608.750000 214 220 215
573961.375000 188040.000000 768178.312500 208 214 209
575361.187500 188230.484375 768956.437500 203 208 204
576602.062500 188368.531250 769520.437500 202 208 205
578088.812500 188586.375000 770410.312500 204 211 206
579413.312500 188750.750000 771081.812500 199 207 200
580792.500000 188932.437500 771824.062500 191 198 191
582404.562500 189189.265625 772873.312500 195 202 194
583803.812500 189376.343750 773637.500000 203 210 203
585505.625000 189660.906250 774800.000000 201 206 206
587013.312500 189881.859375 775702.625000 199 202 206
588514.375000 190100.062500 776594.062500 198 202 203
590208.562500 190379.953125 777737.437500 193 197 196
591598.312500 190561.000000 778477.062500 192 196 194
593171.750000 190800.593750 779455.875000 195 199 196
594527.562500 190969.656250 780146.500000 196 201 196
595788.062500 191107.640625 780710.250000 194 199 192
597065.187500 191250.593750 781294.187500 192 196 190
598076.000000 191307.937500 781528.437500 195 200 193
599596.687500 191528.015625 782427.500000 201 206 199
601270.437500 191796.281250 783523.437500 198 202 196
603071.937500 192104.515625 784782.625000 193 196 191
604916.000000 192425.421875 786093.625000 193 194 189
606331.500000 192609.328125 786844.875000 191 191 186
608155.125000 192922.187500 788123.000000 186 187 182
609810.812500 193180.968750 789180.125000 184 185 179
611526.437500 193458.015625 790311.937500 184 185 180
613514.375000 193820.312500 791792.000000 188 189 183
615137.562500 194066.562500 792797.937500 192 193 186
617192.937500 194448.281250 794357.312500 196 197 190
618762.812500 194676.218750 795288.500000 199 200 194
620699.625000 195018.828125 796688.125000 201 202 196
623666.125000 195683.562500 799403.687500 198 199 193
626452.687500 196290.125000 801881.625000 193 194 188
630205.062500 197197.234375 805587.312500 193 193 187
633239.812500 197877.640625 808366.937500 197 198 191
636335.562500 198575.218750 811216.687500 199 200 191
640147.625000 199494.156250 814970.687500 196 198 188
642994.250000 200110.156250 817487.125000 191 193 183
646810.937500 201025.953125 821228.312500 188 189 180
649961.437500 201732.515625 824114.812500 189 189 181
653001.250000 202402.875000 826853.375000 192 191 182
656679.312500 203269.000000 830391.562500 192 192 181
659348.000000 203820.781250 832645.750000 187 187 177
662345.625000 204472.609375 835308.562500 183 183 173
664496.562500 204861.656250 836897.937500 182 182 172
666287.250000 205138.750000 838029.875000 183 183 173
668460.500000 205532.734375 839639.375000 184 185 175
670094.687500 205760.156250 840568.437500 180 180 169
672031.750000 206079.828125 841874.375000 174 174 163
673697.812500 206315.656250 842837.750000 166 166 155
675274.312500 206523.468750 843686.687500 160 160 149
677056.687500 206793.609375 844790.312500 155 155 145
678499.812500 206959.562500 845468.250000 148 148 140
680056.187500 207159.562500 846285.312500 146 146 139
681354.625000 207280.593750 846779.687500 142 142 134
702510.750000 197278.062500 805917.500000 166 149 114
702798.687500 197118.265625 805264.687500 185 163 126
703310.000000 197021.421875 804869.125000 195 176 142
703957.500000 196962.906250 804630.062500 161 146 119
381384.687500 182008.109375 740318.250000 154 154 146
382142.468750 181993.765625 740259.937500 172 172 164
382892.093750 181975.609375 740186.062500 162 162 154
383637.218750 181955.390625 740103.812500 158 158 149
384386.250000 181937.109375 740029.437500 171 170 160
385155.281250 181928.343750 739993.812500 167 164 155
385920.843750 181917.984375 739951.687500 146 145 135
386698.750000 181913.468750 739933.312500 139 140 129
387474.656250 181908.031250 739911.187500 144 144 134
388234.406250 181895.062500 739858.437500 141 141 130
388996.000000 181882.984375 739809.312500 143 143 133
389740.000000 181862.750000 739727.000000 137 137 127
390498.000000 181849.125000 739671.562500 141 141 132
391242.625000 181829.343750 739591.125000 170 170 162
391957.218750 181795.703125 739454.312500 181 181 173
392681.531250 181766.703125 739336.312500 162 162 154
393366.437500 181719.609375 739144.750000 137 137 129
394072.437500 181682.437500 738993.562500 125 125 117
394770.625000 181641.796875 738828.250000 129 130 122
395441.500000 181588.796875 738612.687500 151 151 143
396148.093750 181552.375000 738464.500000 174 174 165
396808.968750 181495.171875 738231.875000 175 175 166
397500.312500 181452.125000 738056.750000 154 154 146
398181.906250 181404.796875 737864.250000 138 138 130
398820.968750 181338.296875 737593.812500 139 139 131
399499.937500 181290.187500 737398.125000 152 152 144
400116.781250 181214.140625 737088.750000 169 168 160
400772.343750 181155.859375 736851.750000 169 166 159
401416.312500 181092.609375 736594.437500 151 148 141
402006.812500 181005.515625 736240.187500 145 142 135
402652.281250 180943.453125 735987.750000 154 150 144
403232.000000 180852.156250 735616.375000 162 157 150
403868.562500 180786.656250 735350.000000 158 154 145
404497.656250 180718.078125 735071.000000 145 141 132
405063.218750 180621.421875 734677.875000 133 129 119
405690.687500 180552.703125 734398.375000 128 124 113
406226.406250 180443.500000 733954.187500 128 124 112
406812.593750 180357.078125 733602.625000 130 126 115
407390.406250 180267.265625 733237.375000 131 128 117
407911.031250 180152.562500 732770.812500 132 130 118
408519.312500 180076.937500 732463.187500 134 132 120
409023.781250 179955.921875 731970.937500 136 134 122
409578.906250 179857.593750 731571.000000 139 137 125
410132.093750 179758.796875 731169.187500 142 140 128
410630.531250 179636.437500 730671.437500 145 141 130
411230.937500 179559.062500 730356.750000 146 141 131
411746.187500 179444.859375 729892.187500 144 140 129
412325.125000 179358.796875 729542.125000 143 139 128
412910.031250 179275.640625 729203.937500 145 141 130
413437.343750 179167.843750 728765.500000 147 143 132
414052.437500 179098.406250 728483.062500 147 142 131
414586.312500 178994.171875 728059.062500 147 143 132
415174.968750 178913.937500 727732.750000 152 148 137
415768.875000 178836.265625 727416.750000 159 157 145
416313.312500 178737.640625 727015.562500 164 162 151
416941.156250 178675.125000 726761.312500 163 162 150
417498.593750 178582.718750 726385.437500 161 160 149
418111.375000 178514.281250 726107.125000 162 161 150
418724.062500 178446.062500 725829.625000 163 162 150
419277.843750 178353.031250 725451.187500 155 155 143
419900.625000 178289.640625 725193.375000 156 155 143
420455.593750 178197.750000 724819.625000 172 171 157
421064.468750 178129.000000 724540.000000 182 180 167
421682.000000 178064.156250 724276.187500 186 184 171
422253.843750 177980.281250 723935.062500 187 184 171
422897.562500 177926.968750 723718.187500 178 176 163
423501.031250 177856.921875 723433.312500 168 166 153
424162.437500 177811.437500 723248.250000 164 162 149
424831.781250 177769.421875 723077.375000 167 165 152
425455.187500 177708.406250 722829.187500 172 172 158
426124.625000 177666.765625 722659.812500 174 175 161
426720.406250 177594.640625 722366.437500 175 176 162
427334.375000 177530.328125 722104.812500 177 177 167
427950.343750 177467.062500 721847.500000 181 181 171
428548.625000 177396.703125 721561.375000 183 183 173
429221.343750 177357.375000 721401.375000 181 181 171
429855.187500 177302.125000 721176.687500 174 174 165
430520.718750 177260.140625 721005.875000 171 171 162
431202.750000 177225.078125 720863.250000 175 175 166
431875.062500 177186.156250 720704.937500 183 183 174
432596.593750 177167.531250 720629.125000 190 190 182
433271.093750 177129.734375 720475.437500 191 191 183
433954.781250 177095.828125 720337.500000 188 188 180
434623.718750 177056.031250 720175.625000 187 187 179
435256.062500 177001.500000 719953.812500 186 186 178
435924.343750 176961.734375 719792.125000 184 184 176
436544.875000 176902.765625 719552.250000 182 182 174
437202.187500 176858.875000 719373.750000 181 181 173
437858.843750 176814.890625 719194.812500 181 181 173
438477.125000 176755.578125 718953.562500 182 182 174
439142.687500 176715.515625 718790.562500 183 183 175
439767.093750 176659.031250 718560.875000 184 184 176
440416.406250 176612.750000 718372.625000 184 183 178
441093.468750 176577.734375 718230.187500 183 182 177
441802.281250 176555.515625 718139.812500 186 186 179
442576.375000 176559.437500 718155.750000 193 193 183
443247.656250 176522.390625 718005.062500 198 198 187
443861.718750 176462.718750 717762.375000 198 198 189
444441.593750 176389.687500 717465.312500 196 196 186
445009.656250 176312.234375 717150.250000 189 189 179
445652.437500 176264.593750 716956.437500 182 182 172
446273.906250 176208.687500 716729.125000 177 178 167
446940.562500 176170.796875 716575.000000 174 174 164
447650.437500 176150.046875 716490.562500 171 169 160
448362.937500 176130.390625 716410.625000 166 163 154
449120.281250 176128.390625 716402.500000 163 160 151
449936.343750 176149.390625 716487.875000 164 160 154
450758.656250 176172.750000 716582.875000 162 158 152
451646.656250 176221.656250 716781.875000 160 156 150
452620.437500 176303.828125 717116.062500 159 156 150
453577.625000 176379.265625 717422.875000 158 157 150
454600.406250 176479.906250 717832.250000 161 163 155
455554.625000 176553.640625 718132.187500 171 171 164
456473.218750 176613.359375 718375.062500 180 180 173
457386.031250 176670.625000 718608.000000 184 184 177
458202.593750 176690.593750 718689.250000 188 188 181
459099.593750 176741.453125 718896.125000 198 197 190
459997.375000 176792.453125 719103.562500 210 208 204
460922.000000 176853.578125 719352.187500 215 216 214
461892.781250 176932.187500 719671.875000 216 219 216
462803.750000 176987.656250 719897.500000 221 225 222
463801.625000 177076.109375 720257.375000 231 234 232
464726.875000 177136.609375 720503.375000 238 241 240
465700.156250 177215.187500 720823.000000 239 244 243
466805.125000 177343.531250 721345.062500 235 239 238
467852.093750 177449.453125 721775.937500 226 230 227
469084.718750 177625.328125 722491.250000 213 217 212
470231.437500 177768.156250 723072.250000 201 205 199
471410.062500 177922.546875 723700.250000 195 196 192
472713.843750 178123.609375 724518.062500 191 193 188
473850.406250 178261.109375 725077.312500 190 192 187
475134.343750 178453.500000 725859.875000 193 194 189
476266.062500 178588.203125 726407.750000 194 194 190
477386.906250 178718.390625 726937.312500 192 193 188
478643.437500 178898.875000 727671.437500 192 193 187
479745.718750 179021.203125 728169.000000 194 195 189
481017.750000 179206.390625 728922.250000 196 198 191
482166.656250 179345.187500 729486.812500 197 199 191
483327.468750 179487.968750 730067.562500 199 200 192
484623.812500 179680.531250 730850.812500 201 201 192
485756.812500 179812.000000 731385.562500 199 200 190
487104.343750 180022.343750 732241.125000 194 195 188
488359.062500 180197.765625 732954.625000 195 195 189
489597.843750 180366.765625 733642.062500 196 196 189
490900.500000 180558.718750 734422.812500 192 192 185
491975.656250 180666.500000 734861.250000 190 190 183
493223.281250 180837.187500 735555.562500 192 192 185
494264.125000 180931.640625 735939.687500 198 198 191
495487.562500 181092.531250 736594.125000 204 205 198
497226.218750 181440.906250 738011.187500 204 205 198
498929.968750 181775.484375 739372.062500 200 201 194
500940.656250 182220.656250 741182.750000 199 200 192
502594.343750 182534.765625 742460.437500 203 204 196
504127.906250 182804.328125 743556.875000 207 208 200
505813.625000 183128.125000 744873.937500 206 206 198
507103.687500 183307.906250 745605.187500 207 207 199
508452.875000 183508.453125 746420.937500 215 215 207
509569.250000 183624.484375 746892.812500 221 222 215
510538.843750 183687.343750 747148.500000 225 226 220
511554.562500 183766.578125 747470.812500 228 229 222
512425.656250 183793.687500 747581.062500 231 231 225
513357.437500 183842.453125 747779.437500 233 234 228
514256.937500 183879.515625 747930.187500 232 233 226
515183.125000 183926.000000 748119.250000 227 227 222
516210.187500 184008.281250 748453.937500 226 228 221
517204.562500 184078.703125 748740.375000 231 237 227
518231.500000 184160.468750 749072.937500 235 242 231
519156.375000 184205.750000 749257.187500 238 244 234
520055.125000 184241.671875 749403.250000 241 248 237
521020.500000 184301.031250 749644.687500 241 248 237
521938.312500 184343.406250 749817.062500 241 248 237
522836.281250 184378.656250 749960.437500 241 247 237
523658.531250 184387.140625 749995.000000 238 244 235
524440.312500 184381.359375 749971.437500 237 243 234
525229.687500 184378.296875 749958.937500 238 245 235
526010.062500 184372.062500 749933.625000 236 244 232
526824.875000 184377.906250 749957.375000 236 243 232
527650.187500 184387.390625 749995.937500 239 244 236
528517.000000 184411.328125 750093.375000 236 241 235
529414.500000 184445.906250 750234.000000 233 239 231
530298.750000 184475.750000 750355.375000 233 240 232
531351.250000 184563.937500 750714.062500 233 240 232
532427.000000 184659.953125 751104.625000 229 237 229
533561.125000 184775.859375 751576.062500 225 233 225
534767.437500 184916.406250 752147.750000 225 234 226
535847.000000 185012.765625 752539.687500 228 237 229
536965.500000 185122.265625 752985.062500 229 239 230
537950.062500 185185.343750 753241.625000 227 239 229
538869.937500 185225.968750 753406.875000 224 233 224
539838.250000 185283.109375 753639.312500 222 222 217
540729.375000 185313.640625 753763.500000 220 217 214
541605.937500 185339.078125 753867.000000 217 216 214
542439.562500 185349.781250 753910.500000 215 215 213
543219.625000 185342.171875 753879.562500 221 221 219
543963.000000 185322.093750 753797.875000 224 223 222
544685.750000 185295.046875 753687.875000 216 216 214
545417.062500 185270.984375 753590.000000 212 212 209
546190.375000 185261.250000 753550.375000 216 217 212
546994.062500 185261.843750 753552.750000 215 215 211
547800.312500 185263.281250 753558.687500 208 206 201
548618.562500 185268.781250 753581.000000 203 200 193
549490.312500 185292.281250 753676.625000 208 206 201
550362.500000 185315.890625 753772.625000 213 213 209
551277.062500 185353.671875 753926.312500 211 212 207
552251.812500 185411.531250 754161.687500 207 209 202
553200.937500 185460.656250 754361.500000 200 203 196
554195.625000 185524.875000 754622.687500 193 197 189
555116.062500 185564.093750 754782.187500 190 194 187
556039.937500 185604.343750 754945.937500 193 198 190
557035.750000 185668.453125 755206.687500 197 202 194
557986.437500 185717.390625 755405.750000 203 205 198
559002.062500 185787.718750 755691.812500 205 205 199
559942.937500 185833.078125 755876.312500 201 201 194
560907.875000 185886.250000 756092.562500 197 199 192
561966.750000 185970.375000 756434.750000 196 200 194
562972.000000 186036.531250 756703.875000 197 202 195
564138.687500 186155.781250 757188.875000 198 203 196
565245.187500 186254.843750 757591.875000 199 204 198
566403.187500 186370.562500 758062.562500 199 204 198
567689.000000 186527.984375 758702.812500 194 199 192
568845.437500 186642.484375 759168.562500 187 192 185
570164.687500 186810.000000 759849.937500 188 193 187
571331.187500 186927.062500 760326.125000 190 195 191
572526.125000 187053.109375 760838.750000 186 192 188
573906.000000 187239.109375 761595.375000 187 193 188
575139.125000 187376.796875 762155.375000 195 201 196
576604.875000 187589.765625 763021.625000 197 200 199
577937.062500 187758.750000 763709.000000 191 193 194
579263.562500 187925.406250 764386.875000 186 189 190
580725.562500 188135.484375 765241.375000 186 189 188
581954.375000 188269.562500 765786.687500 189 192 190
583282.562500 188435.343750 766461.062500 193 197 193
584445.687500 188547.406250 766916.875000 191 195 190
585503.562500 188625.281250 767233.625000 185 189 183
586576.375000 188707.718750 767568.937500 183 188 181
587483.187500 188736.609375 767686.437500 183 187 181
588461.812500 188788.453125 767897.312500 183 187 181
589448.187500 188842.656250 768117.750000 185 190 184
590392.875000 188883.343750 768283.312500 187 191 185
591272.250000 188903.062500 768363.437500 187 189 183
592053.750000 188891.500000 768316.437500 183 184 178
592921.250000 188907.359375 768381.000000 177 178 172
593839.062500 188939.203125 768510.437500 175 176 170
594810.250000 188987.906250 768708.562500 178 179 173
595819.125000 189048.437500 768954.812500 184 185 180
596780.875000 189093.875000 769139.562500 190 191 184
597822.187500 189164.343750 769426.250000 191 192 184
598483.500000 189114.562500 769223.750000 189 190 182
599674.937500 189232.203125 769702.250000 187 188 180
602014.250000 189711.234375 771650.687500 186 187 179
604631.875000 190276.562500 773950.187500 184 185 178
608140.125000 191120.234375 777381.812500 188 190 181
610948.500000 191741.968750 779910.750000 196 197 187
613885.062500 192402.187500 782596.187500 199 201 189
617529.812500 193282.296875 786176.000000 197 199 186
620301.437500 193887.093750 788636.000000 196 198 186
624116.187500 194815.859375 792413.750000 197 198 186
627241.250000 195527.125000 795306.875000 197 198 186
630436.812500 196258.437500 798281.500000 197 197 185
634614.250000 197293.015625 802489.625000 196 196 183
637849.500000 198032.312500 805496.750000 194 194 182
641339.625000 198848.625000 808817.062500 195 195 182
643635.625000 199293.031250 810624.687500 197 197 184
645354.562500 199557.796875 811701.625000 198 198 186
647421.812500 199929.390625 813213.125000 202 202 190
648866.687500 200108.093750 813939.937500 207 208 194
650630.375000 200384.484375 815064.187500 204 206 191
652203.125000 200601.421875 815946.625000 196 197 183
653755.375000 200811.484375 816801.000000 190 191 177
655551.250000 201095.718750 817957.125000 190 190 177
657042.312500 201285.828125 818730.375000 190 190 179
658748.250000 201541.171875 819769.000000 185 185 175
660195.000000 201716.656250 820482.750000 177 177 166
661582.125000 201873.468750 821120.625000 170 170 159
663139.937500 202081.875000 821968.312500 164 164 154
664444.125000 202212.546875 822499.812500 161 160 152
665997.437500 202418.609375 823337.937500 159 158 152
667432.750000 202588.312500 824028.250000 157 156 150
668841.937500 202749.640625 824684.437500 159 158 149
670327.312500 202933.609375 825432.750000 158 156 146
671544.750000 203036.093750 825849.625000 152 149 139
673013.812500 203214.265625 826574.312500 141 139 130
691310.687500 195454.187500 795010.187500 165 152 94
691151.187500 195170.203125 793855.125000 174 159 99
691349.812500 194987.953125 793113.812500 189 171 110
691401.875000 194764.843750 792206.250000 210 189 131
691737.875000 194622.171875 791625.937500 225 205 155
692201.750000 194515.781250 791193.187500 201 186 146
377085.562500 180735.453125 731973.062500 143 143 134
377870.687500 180738.375000 731984.937500 158 158 150
378632.187500 180730.015625 731951.062500 158 158 150
379377.468750 180713.968750 731886.062500 154 154 145
380132.250000 180702.484375 731839.562500 160 160 150
380898.656250 180696.578125 731815.625000 161 158 149
381656.656250 180686.703125 731775.687500 143 142 131
382422.750000 180680.703125 731751.375000 140 141 129
383180.687500 180670.890625 731711.562500 158 158 147
383918.937500 180651.828125 731634.437500 163 163 153
384660.218750 180634.281250 731563.375000 159 159 150
385377.312500 180605.468750 731446.687500 145 145 135
386110.843750 180584.468750 731361.562500 140 140 130
386831.968750 180557.734375 731253.375000 164 164 154
387521.218750 180516.281250 731085.437500 183 183 174
388227.562500 180482.953125 730950.437500 168 168 160
388896.718750 180432.484375 730746.062500 135 136 128
389591.468750 180394.062500 730590.500000 121 122 115
390284.218750 180354.890625 730431.812500 129 130 122
390952.531250 180304.593750 730228.125000 151 153 145
391657.750000 180271.484375 730094.062500 175 175 168
392325.718750 180221.390625 729891.125000 177 177 170
393023.968750 180185.390625 729745.312500 158 158 150
393714.000000 180145.765625 729584.812500 140 140 132
394363.093750 180087.593750 729349.250000 137 137 129
395044.343750 180044.312500 729173.937500 141 140 133
395667.437500 179974.734375 728892.187500 145 145 137
396324.687500 179920.953125 728674.375000 142 142 134
396969.250000 179861.625000 728434.125000 137 135 128
397563.562500 179779.812500 728102.750000 145 142 135
398208.531250 179721.171875 727865.250000 165 163 156
398790.218750 179634.250000 727513.250000 180 177 170
399425.781250 179571.906250 727260.750000 171 168 160
400052.250000 179505.703125 726992.625000 147 143 134
400617.312500 179412.250000 726614.187500 126 122 113
401241.156250 179345.468750 726343.687500 116 112 101
401769.125000 179236.140625 725900.875000 116 112 101
402345.156250 179148.625000 725546.500000 126 122 111
402906.218750 179054.812500 725166.562500 133 130 119
403403.718750 178933.156250 724673.875000 131 128 117
403989.000000 178850.843750 724340.437500 129 127 115
404460.156250 178718.390625 723804.062500 131 129 117
404985.937500 178610.546875 723367.312500 135 133 121
405508.125000 178501.515625 722925.750000 142 140 128
405969.531250 178366.218750 722377.750000 147 145 133
406542.156250 178280.187500 722029.312500 149 146 135
407025.031250 178155.187500 721523.125000 148 144 133
407579.968750 178062.156250 721146.312500 143 139 128
408144.281250 177973.578125 720787.562500 139 136 124
408646.875000 177858.437500 720321.250000 137 132 122
409243.812500 177784.734375 720022.750000 138 130 120
409757.875000 177675.375000 719579.812500 140 132 122
410332.281250 177592.515625 719244.312500 146 137 128
410911.593750 177512.109375 718918.625000 153 145 136
411435.937500 177408.281250 718498.125000 158 153 142
412045.562500 177341.546875 718227.875000 159 155 144
412575.250000 177240.734375 717819.562500 158 153 143
413164.593750 177165.859375 717516.312500 158 153 143
413746.562500 177088.109375 717201.437500 159 154 143
414257.812500 176980.421875 716765.375000 157 153 142
414843.625000 176904.953125 716459.687500 156 152 141
415333.812500 176789.031250 715990.187500 160 158 145
415879.375000 176697.078125 715617.812500 165 163 150
416430.968750 176608.000000 715257.062500 169 167 154
416931.218750 176497.546875 714809.687500 170 168 155
417529.343750 176428.812500 714531.375000 167 165 152
418078.125000 176339.546875 714169.812500 162 160 147
418696.687500 176279.968750 713928.500000 159 157 144
419335.750000 176229.218750 713723.000000 159 159 145
419930.468750 176160.062500 713442.937500 161 163 149
420587.062500 176117.062500 713268.687500 165 166 152
421185.468750 176049.890625 712996.687500 167 168 154
421809.281250 175993.562500 712768.562500 167 167 157
422445.593750 175942.640625 712562.375000 169 169 160
423070.218750 175887.046875 712337.187500 172 172 162
423759.906250 175858.656250 712222.187500 172 172 162
424421.750000 175818.828125 712060.875000 170 170 160
425105.062500 175788.015625 711936.125000 171 170 160
425803.156250 175763.421875 711836.500000 175 175 164
426500.500000 175738.593750 711736.000000 182 182 172
427235.312500 175729.281250 711698.250000 189 189 181
427923.312500 175700.765625 711582.750000 193 192 185
428603.093750 175669.000000 711454.062500 192 192 184
429269.625000 175631.906250 711303.875000 192 192 184
429916.437500 175586.906250 711121.625000 192 191 183
430599.031250 175556.640625 710999.000000 187 187 179
431265.500000 175519.921875 710850.312500 182 182 174
431972.281250 175499.703125 710768.500000 178 178 170
432682.218750 175480.843750 710692.062500 177 177 169
433346.531250 175443.578125 710541.125000 178 178 170
434025.812500 175412.484375 710415.250000 177 177 169
434719.250000 175387.218750 710312.875000 173 173 165
435466.343750 175383.656250 710298.437500 167 167 159
436231.531250 175387.359375 710313.500000 163 163 155
436985.156250 175386.437500 710309.750000 157 157 149
437741.875000 175386.734375 710310.937500 154 154 146
438417.843750 175354.750000 710181.375000 162 161 153
439053.187500 175306.640625 709986.562500 168 168 160
439659.906250 175247.296875 709746.187500 167 167 159
440258.156250 175184.781250 709493.000000 160 157 150
440916.718750 175146.437500 709337.750000 148 145 137
441561.031250 175102.562500 709160.062500 136 134 126
442241.812500 175073.296875 709041.500000 130 128 120
442960.218750 175058.984375 708983.562500 130 127 119
443684.531250 175047.062500 708935.312500 130 127 120
444443.906250 175048.984375 708943.062500 133 129 121
445255.937500 175071.609375 709034.687500 137 131 124
446068.593750 175094.406250 709127.000000 139 132 125
446937.031250 175138.968750 709307.500000 138 133 126
447881.937500 175213.312500 709608.562500 141 137 129
448809.718750 175280.703125 709881.562500 148 145 137
449798.218750 175371.546875 710249.437500 158 156 149
450725.406250 175438.218750 710519.437500 170 170 162
451623.843750 175493.515625 710743.375000 181 181 173
452527.906250 175550.781250 710975.312500 185 185 177
453348.093750 175575.390625 711074.937500 186 186 178
454215.218750 175618.046875 711247.750000 194 193 184
455063.343750 175653.234375 711390.250000 201 199 193
455918.375000 175690.968750 711543.062500 200 200 197
456794.250000 175736.609375 711727.875000 200 201 199
457625.562500 175764.984375 711842.812500 208 210 206
458588.343750 175843.656250 712161.437500 223 224 221
459548.000000 175920.875000 712474.187500 237 239 237
460577.625000 176024.593750 712894.250000 243 246 244
461707.687500 176166.281250 713468.125000 240 242 240
462750.843750 176274.406250 713906.000000 230 232 229
463962.968750 176446.437500 714602.687500 217 219 215
465083.093750 176582.968750 715155.625000 204 206 201
466219.093750 176725.078125 715731.187500 194 195 190
467466.406250 176908.828125 716475.375000 189 191 185
468553.625000 177031.515625 716972.250000 188 191 184
469778.750000 177205.812500 717678.187500 191 191 186
470869.500000 177328.937500 718176.812500 190 190 185
471956.343750 177450.203125 718667.937500 185 186 181
473171.687500 177619.328125 719352.875000 180 180 175
474247.187500 177735.468750 719823.250000 175 175 169
475490.000000 177913.843750 720545.687500 174 173 166
476622.125000 178050.312500 721098.312500 175 173 165
477764.593750 178190.171875 721664.812500 175 173 166
479032.750000 178376.406250 722419.000000 176 174 166
480140.562500 178502.421875 722929.375000 175 173 165
481415.593750 178690.109375 723689.500000 171 168 163
482571.531250 178833.062500 724268.437500 170 167 164
483717.156250 178971.734375 724830.062500 171 169 165
484967.937500 179148.812500 725547.250000 168 166 162
486045.406250 179261.406250 726003.250000 165 163 159
487266.687500 179426.625000 726672.312500 167 165 161
488282.593750 179515.781250 727033.437500 174 172 167
489435.750000 179655.046875 727597.437500 181 179 174
491019.031250 179951.500000 728798.125000 184 182 177
492559.687500 180231.437500 729931.812500 185 183 178
494373.031250 180610.093750 731465.437500 186 184 180
495899.906250 180883.093750 732571.000000 186 184 180
497328.343750 181119.375000 733527.937500 185 183 179
498874.750000 181397.796875 734655.562500 185 184 179
500075.687500 181549.953125 735271.750000 188 186 182
501337.968750 181723.843750 735976.062500 193 192 187
502405.343750 181826.671875 736392.437500 199 198 193
503359.625000 181888.296875 736642.062500 203 202 197
504370.812500 181970.281250 736974.062500 205 204 199
505256.937500 182006.953125 737122.625000 208 207 202
506198.406250 182063.406250 737351.250000 209 208 203
507091.593750 182102.343750 737509.000000 207 206 201
508002.593750 182147.578125 737692.125000 204 202 198
509009.812500 182227.078125 738014.125000 202 202 198
509981.312500 182293.593750 738283.500000 205 207 201
510992.312500 182374.000000 738609.125000 207 211 204
511911.125000 182421.296875 738800.687500 210 213 207
512809.218750 182461.078125 738961.812500 212 215 210
513769.531250 182522.843750 739212.000000 214 217 211
514678.031250 182566.046875 739386.937500 213 217 210
515589.437500 182610.140625 739565.562500 212 216 209
516432.343750 182629.890625 739645.500000 212 215 208
517247.218750 182639.671875 739685.125000 210 214 207
518082.375000 182656.562500 739753.500000 208 212 204
518894.281250 182665.234375 739788.625000 208 213 205
519754.500000 182690.859375 739892.375000 210 214 207
520607.281250 182713.781250 739985.250000 212 213 210
521497.375000 182749.718750 740130.812500 215 215 212
522434.187500 182801.890625 740342.125000 216 217 213
523342.625000 182844.015625 740512.687500 214 214 209
524404.312500 182939.453125 740899.250000 210 211 205
525466.625000 183034.828125 741285.500000 208 209 202
526565.875000 183142.750000 741722.562500 208 208 201
527731.500000 183273.406250 742251.750000 209 209 203
528772.500000 183360.484375 742604.375000 210 210 204
529822.562500 183450.406250 742968.562500 211 211 205
530746.000000 183496.296875 743154.375000 210 211 205
531590.437500 183514.781250 743229.250000 209 210 203
532455.187500 183540.187500 743332.187500 208 208 197
533263.312500 183546.046875 743355.937500 206 206 193
534033.750000 183538.953125 743327.187500 205 205 193
534788.812500 183526.578125 743277.062500 205 205 194
535502.687500 183500.156250 743170.062500 206 206 195
536170.500000 183458.015625 742999.375000 208 209 198
536848.875000 183419.625000 742843.875000 207 209 198
537531.687500 183382.859375 742695.000000 207 208 198
538273.125000 183366.171875 742627.375000 208 209 199
539053.000000 183362.609375 742612.937500 207 208 197
539830.312500 183358.187500 742595.125000 202 202 192
540628.937500 183361.000000 742606.500000 201 200 190
541462.500000 183375.656250 742665.812500 206 206 197
542296.000000 183390.218750 742724.812500 210 211 202
543161.562500 183415.593750 742827.562500 206 208 199
544075.625000 183457.218750 742996.187500 203 204 195
544976.500000 183494.328125 743146.437500 204 205 196
545885.750000 183534.109375 743307.562500 204 206 197
546731.750000 183552.546875 743382.250000 200 203 194
547562.500000 183565.812500 743436.000000 198 200 192
548429.312500 183591.140625 743538.500000 202 203 196
549277.062500 183609.984375 743614.875000 210 210 204
550134.125000 183631.906250 743703.687500 213 213 207
550949.187500 183639.765625 743735.500000 205 203 198
551776.687500 183651.750000 743784.000000 198 198 192
552653.562500 183680.078125 743898.750000 201 203 194
553526.250000 183706.968750 744007.625000 205 208 199
554490.937500 183764.265625 744239.687500 205 208 199
555440.625000 183816.421875 744450.875000 203 206 197
556427.750000 183880.812500 744711.687500 201 204 197
557483.562500 183967.671875 745063.437500 201 205 198
558472.187500 184032.156250 745324.625000 199 203 196
559516.312500 184114.718750 745659.000000 197 200 195
560458.812500 184163.656250 745857.187500 199 200 197
561401.875000 184212.640625 746055.625000 202 204 201
562437.937500 184291.953125 746376.812500 201 203 200
563416.500000 184352.250000 746621.000000 197 200 196
564512.250000 184450.640625 747019.437500 198 201 196
565568.625000 184535.890625 747364.750000 199 201 195
566610.875000 184616.343750 747690.562500 195 197 192
567681.625000 184705.828125 748053.000000 194 195 191
568629.375000 184755.078125 748252.500000 195 196 191
569566.000000 184800.593750 748436.812500 193 195 189
570442.562500 184826.531250 748541.812500 194 196 190
571223.750000 184821.546875 748521.625000 195 197 190
571956.312500 184800.828125 748437.750000 189 191 184
572648.625000 184767.203125 748301.562500 183 185 179
573163.500000 184676.500000 747934.187500 181 182 177
573692.000000 184590.437500 747585.625000 182 183 179
574110.812500 184469.359375 747095.312500 185 187 182
574359.500000 184294.015625 746385.187500 186 187 181
574715.812500 184153.671875 745816.812500 181 182 176
574929.750000 183968.156250 745065.375000 176 177 171
575330.000000 183842.656250 744557.187500 172 174 166
575770.125000 183730.234375 744101.875000 174 175 167
576092.875000 183580.734375 743496.437500 178 179 171
576587.562500 183486.359375 743114.125000 181 182 174
576943.625000 183348.171875 742554.500000 178 179 171
577149.562500 183162.750000 741803.562500 173 174 165
577779.250000 183112.093750 741598.375000 167 168 159
579162.062500 183299.953125 742359.187500 165 166 158
580961.125000 183618.859375 743650.812500 167 167 160
583271.625000 184098.312500 745592.562500 170 171 163
585172.625000 184447.390625 747006.312500 173 175 163
587197.875000 184834.656250 748574.750000 175 177 163
589656.000000 185356.921875 750689.875000 175 177 164
591629.937500 185725.781250 752183.812500 176 178 165
594261.937500 186299.953125 754509.125000 176 178 165
596449.937500 186733.562500 756265.250000 176 177 164
598749.500000 187200.875000 758157.875000 175 174 162
601781.937500 187895.781250 760972.187500 172 172 160
604270.687500 188419.265625 763092.312500 175 175 163
606864.312500 188974.015625 765339.000000 179 179 167
608581.812500 189254.828125 766476.312500 184 184 171
609872.375000 189402.281250 767073.437500 185 185 173
611378.500000 189616.203125 767939.875000 187 187 174
612496.000000 189709.203125 768316.500000 188 189 175
613836.937500 189871.046875 768971.937500 188 189 175
615089.875000 190005.281250 769515.562500 187 188 174
616377.500000 190149.859375 770101.125000 187 188 174
617809.750000 190338.625000 770865.625000 190 192 177
619043.500000 190465.796875 771380.687500 196 197 183
620714.125000 190726.875000 772438.000000 193 194 180
622341.875000 190974.109375 773439.312500 183 183 171
624063.437500 191249.421875 774554.312500 181 181 168
625944.062500 191572.718750 775863.687500 185 185 173
627439.687500 191777.468750 776692.875000 188 188 176
629390.000000 192120.484375 778082.062500 187 187 177
631146.687500 192403.562500 779228.562500 185 186 175
632957.437500 192702.375000 780438.750000 183 183 172
635034.562500 193081.375000 781973.687500 179 179 167
636688.062500 193330.750000 782983.687500 172 172 160
638875.750000 193741.484375 784647.062500 168 168 156
640823.125000 194078.343750 786011.375000 171 171 159
642817.750000 194428.625000 787430.000000 176 175 163
645099.500000 194864.718750 789196.187500 174 174 162
646867.000000 195144.562500 790329.500000 168 167 156
649297.687500 195623.484375 792269.187500 163 162 151
651456.437500 196019.312500 793872.250000 162 161 150
653738.187500 196451.109375 795621.000000 162 161 150
656569.687500 197046.765625 798033.437500 158 156 146
658848.187500 197475.125000 799768.250000 152 151 141
661380.312500 197978.312500 801806.125000 144 142 132
679658.625000 200347.828125 811402.562500 144 137 119
680922.937500 200465.812500 811880.437500 157 150 130
682011.437500 200531.812500 812147.687500 161 154 131
683242.062500 200639.359375 812583.312500 169 163 136
684459.750000 200742.875000 813002.562500 184 179 148
685597.687500 200822.750000 813326.000000 193 188 158
686669.812500 200883.171875 813570.687500 172 166 140
685860.000000 195230.421875 790677.250000 151 137 91
685715.437500 194950.093750 789541.937500 187 171 112
685365.125000 194612.015625 788172.750000 203 185 117
684387.437500 194096.828125 786086.250000 201 183 108
683798.812500 193693.125000 784451.312500 210 191 115
682601.750000 193118.265625 782123.125000 225 206 134
681954.125000 192700.062500 780429.375000 221 202 138
681366.500000 192299.796875 778808.375000 186 170 119
343149.343750 180057.937500 726099.500000 139 143 140
343258.750000 179710.656250 724699.062500 136 138 134
368473.812500 179971.687500 725751.750000 142 140 127
369649.875000 180168.453125 726545.125000 142 140 126
373743.187500 180651.968750 728495.000000 142 141 132
374701.281250 180740.140625 728850.562500 145 145 139
375535.000000 180768.078125 728963.250000 146 145 140
376347.812500 180785.859375 729034.937500 163 163 158
377120.281250 180784.218750 729028.312500 177 177 170
377859.968750 180766.906250 728958.500000 170 170 161
378612.281250 180755.703125 728913.312500 156 155 145
379371.000000 180747.578125 728880.562500 150 147 138
380107.812500 180729.078125 728806.000000 137 135 125
380851.906250 180714.125000 728745.625000 140 141 128
381578.187500 180690.765625 728651.437500 165 165 153
382273.468750 180652.859375 728498.625000 173 172 161
382979.593750 180620.250000 728367.062500 155 155 144
383643.062500 180567.671875 728155.062500 144 144 133
384332.468750 180527.484375 727993.000000 143 143 133
385009.187500 180481.515625 727807.625000 137 137 127
385644.125000 180416.187500 727544.187500 138 138 127
386314.562500 180367.687500 727348.625000 136 136 126
386939.531250 180298.218750 727068.437500 126 126 117
387602.562500 180246.718750 726860.750000 124 125 116
388271.656250 180198.218750 726665.187500 137 138 129
388914.093750 180137.593750 726420.687500 157 158 149
389606.531250 180100.296875 726270.312500 172 173 165
390259.375000 180044.890625 726046.875000 173 173 165
390946.031250 180005.265625 725887.125000 165 165 157
391626.937500 179963.156250 725717.312500 158 158 150
392266.343750 179902.187500 725471.437500 152 152 144
392941.531250 179857.843750 725292.562500 141 141 133
393555.375000 179785.625000 725001.375000 129 129 120
394203.281250 179729.250000 724774.062500 123 123 115
394837.437500 179666.812500 724522.250000 128 128 122
395419.656250 179581.046875 724176.375000 138 135 131
396054.718750 179519.562500 723928.437500 153 150 143
396623.031250 179428.109375 723559.687500 160 157 150
397246.687500 179362.000000 723293.125000 147 144 136
397861.281250 179292.078125 723011.125000 127 124 115
398413.250000 179194.250000 722616.625000 116 113 103
399027.750000 179124.875000 722336.875000 115 113 101
399542.343750 179011.000000 721877.625000 118 116 103
400107.375000 178920.109375 721511.125000 126 124 112
400655.000000 178821.812500 721114.750000 137 135 123
401133.406250 178693.046875 720595.500000 140 138 126
401702.250000 178604.984375 720240.375000 137 135 123
402146.500000 178461.968750 719663.625000 135 133 121
402647.593750 178344.671875 719190.625000 137 135 123
403143.343750 178225.468750 718709.937500 142 140 128
403572.718750 178077.406250 718112.875000 145 143 131
404122.281250 177982.859375 717731.562500 145 143 131
404581.062500 177848.765625 717190.812500 143 140 129
405121.093750 177750.812500 716795.812500 139 135 124
405676.156250 177659.812500 716428.812500 134 130 119
406167.750000 177541.390625 715951.375000 131 126 116
406757.875000 177466.421875 715649.000000 134 125 116
407270.156250 177357.843750 715211.125000 137 127 118
407848.500000 177278.375000 714890.625000 139 131 121
408431.250000 177201.109375 714579.062500 143 134 125
408954.937500 177098.546875 714165.500000 145 138 128
409559.156250 177031.203125 713893.937500 147 140 130
410068.250000 176923.046875 713457.812500 147 140 130
410637.531250 176841.203125 713127.750000 146 139 129
411181.906250 176748.968750 712755.812500 144 140 129
411634.875000 176617.843750 712227.062500 147 143 132
412168.125000 176521.593750 711838.937500 151 147 136
412556.125000 176363.609375 711201.812500 153 150 138
413004.000000 176231.734375 710670.000000 155 154 140
413448.468750 176098.906250 710134.375000 158 156 143
413824.812500 175937.593750 709483.875000 159 157 144
414342.687500 175836.937500 709077.937500 159 157 144
414783.843750 175704.140625 708542.437500 158 157 144
415316.406250 175610.468750 708164.687500 157 157 143
415890.312500 175534.593750 707858.750000 156 157 143
416420.000000 175440.375000 707478.812500 160 160 147
417049.250000 175388.343750 707269.000000 168 168 155
417655.781250 175326.984375 707021.500000 174 176 162
418312.875000 175287.031250 706860.375000 174 175 164
419008.531250 175263.343750 706764.875000 173 174 163
419700.000000 175237.984375 706662.625000 173 174 163
420436.437500 175231.468750 706636.375000 172 172 162
421170.312500 175223.921875 706605.875000 171 172 161
421906.656250 175217.406250 706579.625000 172 172 162
422656.343750 175216.453125 706575.812500 174 174 165
423424.906250 175223.312500 706603.437500 176 176 168
424205.625000 175235.171875 706651.312500 177 177 170
424944.625000 175229.781250 706629.562500 179 179 171
425643.625000 175207.953125 706541.562500 181 181 173
426326.406250 175179.531250 706426.937500 181 181 173
427013.375000 175152.921875 706319.625000 179 179 172
427727.875000 175137.703125 706258.250000 176 176 168
428467.593750 175132.828125 706238.562500 172 172 164
429250.125000 175145.437500 706289.437500 169 169 161
430036.531250 175159.578125 706346.500000 167 167 159
430779.125000 175155.859375 706331.500000 166 166 158
431496.812500 175142.046875 706275.750000 163 163 155
432222.250000 175131.421875 706232.937500 156 156 148
432974.500000 175131.687500 706233.937500 148 148 140
433729.656250 175133.109375 706239.687500 141 141 133
434474.968750 175130.562500 706229.437500 135 135 127
435219.093750 175127.546875 706217.312500 132 131 125
435917.406250 175106.156250 706131.000000 139 139 134
436599.000000 175078.109375 706017.937500 153 152 146
437262.968750 175043.109375 705876.812500 162 160 154
437914.656250 175003.328125 705716.375000 161 158 153
438600.062500 174977.140625 705610.750000 149 146 141
439272.750000 174945.968750 705485.062500 134 131 126
439970.406250 174924.828125 705399.812500 124 120 115
440689.593750 174912.312500 705349.312500 121 118 112
441410.281250 174900.421875 705301.375000 124 122 116
442156.625000 174898.734375 705294.562500 130 127 122
442917.593750 174902.828125 705311.062500 138 132 124
443675.718750 174905.765625 705322.937500 140 135 125
444461.187500 174919.468750 705378.187500 139 136 126
445284.000000 174947.812500 705492.500000 143 141 131
446108.718750 174976.781250 705609.312500 153 151 142
446968.906250 175019.562500 705781.875000 166 164 156
447803.843750 175052.328125 705913.937500 177 177 169
448636.062500 175083.906250 706041.312500 185 185 177
449480.000000 175119.968750 706186.687500 187 187 179
450283.656250 175140.218750 706268.375000 186 186 179
451127.093750 175175.859375 706412.125000 187 187 180
